-0.0144176992 -0.5212770358 0.6259198744
-0.0146002129 -0.5222366544 0.6252665590
-0.0147831135 -0.5231983075 0.6246118584
-0.0226310942 -0.5644613401 0.5965196822
-0.0228314280 -0.5655146533 0.5958025788
-0.0230322069 -0.5665703064 0.5950838824
-0.0232334323 -0.5676283072 0.5943635877
-0.0234351057 -0.5686886635 0.5936416893
-0.0263064254 -0.5837854586 0.5833636801
-0.0265150024 -0.5848821131 0.5826170696
-0.0267240523 -0.5859812534 0.5818687668
-0.0269335766 -0.5870828881 0.5811187658
-0.0137103067 -0.5153593912 0.6293828081
-0.0138909236 -0.5163067239 0.6287372615
-0.0146172088 -0.5201160766 0.6261414319
-0.0147997404 -0.5210734519 0.6254890420
-0.0149826587 -0.5220328549 0.6248352704
-0.0151659648 -0.5229942920 0.6241801126
-0.0228310084 -0.5631973093 0.5967843336
-0.0230313418 -0.5642480543 0.5960683183
-0.0232321197 -0.5653011309 0.5953507141
-0.0234333437 -0.5663565468 0.5946315158
-0.0236350151 -0.5674143100 0.5939107181
-0.0267148199 -0.5835678315 0.5829031287
-0.0269238594 -0.5846642396 0.5821559969
-0.0271333727 -0.5857631330 0.5814071715
-0.0139093021 -0.5142119605 0.6295993333
-0.0148162971 -0.5189575684 0.6263625217
-0.0149988463 -0.5199127078 0.6257110548
-0.0153651045 -0.5218290554 0.6244039817
-0.0230304805 -0.5619360742 0.5970483998
-0.0232308129 -0.5629842597 0.5963334694
-0.0234315894 -0.5640347686 0.5956169544
-0.0236328114 -0.5650876085 0.5948988494
-0.0238344804 -0.5661427873 0.5941791492
-0.0240365979 -0.5672003127 0.5934578484
-0.0269141860 -0.5822565189 0.5831885415
-0.0271232145 -0.5833502043 0.5824425773
-0.0273327163 -0.5844463660 0.5816949241
-0.0275426930 -0.5855450125 0.5809455762
-0.0141078800 -0.5130669372 0.6298154043
-0.0142885351 -0.5140098731 0.6291716678
-0.0146509860 -0.5159016985 0.6278801303
-0.0153804838 -0.5197093391 0.6252806777
-0.0155638229 -0.5206662841 0.6246273772
-0.0234298429 -0.5617232601 0.5965980341
-0.0236306175 -0.5627712100 0.5958826052
-0.0238318370 -0.5638214828 0.5951655905
-0.0240335031 -0.5648740861 0.5944469847
-0.0242356171 -0.5659290277 0.5937267826
-0.0273221193 -0.5820391376 0.5827285104
-0.0275316091 -0.5831325772 0.5819820260
-0.0277415732 -0.5842284925 0.5812338514
-0.0144867152 -0.5128650617 0.6293881874
-0.0146677681 -0.5138077857 0.6287440022
-0.0148492017 -0.5147524916 0.6280984628
-0.0155787665 -0.5185512603 0.6255026761
-0.0157621214 -0.5195059703 0.6248503006
-0.0159458642 -0.5204627002 0.6241965448
-0.0236284332 -0.5604650463 0.5968620143
-0.0238292053 -0.5615104461 0.5961476684
-0.0240304220 -0.5625581604 0.5954317409
-0.0242320846 -0.5636081970 0.5947142266
-0.0244341948 -0.5646605637 0.5939951200
-0.0277300526 -0.5818217563 0.5822684793
-0.0279400037 -0.5829149500 0.5815214746
-0.0281504302 -0.5840106190 0.5807727786
-0.0148655504 -0.5126631863 0.6289609705
-0.0150470012 -0.5136056983 0.6283163367
-0.0152288334 -0.5145501917 0.6276703477
-0.0157766310 -0.5173956239 0.6257242063
-0.0159600012 -0.5183481062 0.6250727533
-0.0161437589 -0.5193026016 0.6244199235
-0.0163279054 -0.5202591164 0.6237657124
-0.0238265853 -0.5592096091 0.5971254120
-0.0240273545 -0.5602524673 0.5964121461
-0.0242285677 -0.5612976320 0.5956973028
-0.0244302265 -0.5623451108 0.5949808767
-0.0246323322 -0.5633949113 0.5942628626
-0.0248348864 -0.5644470413 0.5935432553
-0.0279280483 -0.5805138933 0.5825542861
-0.0281379859 -0.5816043749 0.5818084481
-0.0283483983 -0.5826973228 0.5810609233
-0.0150629183 -0.5115209857 0.6291774840
-0.0152443857 -0.5124613108 0.6285337535
-0.0154262342 -0.5134036108 0.6278886712
-0.0159740786 -0.5162424222 0.6259452697
-0.0161574636 -0.5171926841 0.6252947368
-0.0163412358 -0.5181449521 0.6246428305
-0.0165253965 -0.5190992328 0.6239895463
-0.0242250664 -0.5589972647 0.5966760402
-0.0244262758 -0.5600398884 0.5959622779
-0.0246279302 -0.5610848180 0.5952469371
-0.0248300310 -0.5621320611 0.5945300125
-0.0250325798 -0.5631816255 0.5938114987
-0.0283355213 -0.5802967572 0.5820947740
-0.0285459192 -0.5813869936 0.5813484170
-0.0287567929 -0.5824796957 0.5806003719
-0.0154413565 -0.5113193218 0.6287507147
-0.0156232209 -0.5122594354 0.6281065366
-0.0161711106 -0.5150916475 0.6261658680
-0.0165382963 -0.5169897442 0.6248652674
-0.0167224705 -0.5179417981 0.6242129077
-0.0169070340 -0.5188958641 0.6235591692
-0.0170919880 -0.5198519486 0.6229040477
-0.0244223425 -0.5577448288 0.5969393525
-0.0246235475 -0.5587849202 0.5962266684
-0.0248251970 -0.5598273094 0.5955124098
-0.0250272926 -0.5608720039 0.5947965715
-0.0252298355 -0.5619190115 0.5940791482
-0.0254328275 -0.5629683398 0.5933601348
-0.0285326115 -0.5789920869 0.5823804546
-0.0287429944 -0.5800796211 0.5816352619
-0.0289538525 -0.5811696122 0.5808883858
-0.0158197948 -0.5111176579 0.6283239455
-0.0160020562 -0.5120575599 0.6276793197
-0.0167349415 -0.5158369701 0.6250872357
-0.0169191289 -0.5167868044 0.6244357979
-0.0171037052 -0.5177386440 0.6237829849
-0.0172886715 -0.5186924953 0.6231287921
-0.0246191842 -0.5564951508 0.5972020851
-0.0248203844 -0.5575327185 0.5964904760
-0.0250220286 -0.5585725758 0.5957772966
-0.0252241183 -0.5596147304 0.5950625416
-0.0254266550 -0.5606591899 0.5943462058
-0.0256296401 -0.5617059618 0.5936282840
-0.0289396253 -0.5787751955 0.5819214603
-0.0291504674 -0.5798624851 0.5811757498
-0.0293617858 -0.5809522309 0.5804283547
-0.0161982330 -0.5109159940 0.6278971762
-0.0163808914 -0.5118556845 0.6272521028
-0.0171153730 -0.5156342440 0.6246582186
-0.0172999616 -0.5165838645 0.6240063285
-0.0174849399 -0.5175354899 0.6233530621
-0.0250167879 -0.5562832739 0.5967537028
-0.0252184263 -0.5573206081 0.5960415995
-0.0254205097 -0.5583602314 0.5953279247
-0.0256230396 -0.5594021514 0.5946126734
-0.0258260174 -0.5604463758 0.5938958401
-0.0291358136 -0.5774737068 0.5822070144
-0.0293466391 -0.5785583042 0.5814624661
-0.0295579404 -0.5796453490 0.5807162377
-0.0163939992 -0.5097768179 0.6281145766
-0.0165766713 -0.5107143301 0.6274704069
-0.0167597266 -0.5116538091 0.6268248858
-0.0174958045 -0.5154315180 0.6242292016
-0.0176807942 -0.5163809247 0.6235768591
-0.0254143916 -0.5560713970 0.5963053204
-0.0256164682 -0.5571084977 0.5955927229
-0.0258189909 -0.5581478870 0.5948785529
-0.0260219609 -0.5591895724 0.5941628052
-0.0262253798 -0.5602335618 0.5934454745
-0.0295423692 -0.5772570596 0.5817485368
-0.0297536530 -0.5783414128 0.5810034719
-0.0299654135 -0.5794282129 0.5802567256
-0.0167720413 -0.5095753651 0.6276882541
-0.0169551096 -0.5105126662 0.6270436377
-0.0176912353 -0.5142815966 0.6244516056
-0.0178762360 -0.5152287919 0.6238001845
-0.0180616269 -0.5161779849 0.6231473896
-0.0258119953 -0.5558595202 0.5958569381
-0.0260145102 -0.5568963873 0.5951438464
-0.0262174720 -0.5579355425 0.5944291811
-0.0264208821 -0.5589769935 0.5937129370
-0.0299489248 -0.5770404124 0.5812900593
-0.0301606668 -0.5781245215 0.5805444776
-0.0169670028 -0.5084387822 0.6279056457
-0.0171500835 -0.5093739123 0.6272619316
-0.0173335478 -0.5103110023 0.6266168684
-0.0178862552 -0.5131340927 0.6246735421
-0.0180712665 -0.5140790838 0.6240230400
-0.0182566675 -0.5150260658 0.6233711675
-0.0184424596 -0.5159750450 0.6227179202
-0.0262095990 -0.5556476433 0.5954085557
-0.0264125521 -0.5566842769 0.5946949699
-0.0266159531 -0.5577231981 0.5939798093
-0.0268198034 -0.5587644145 0.5932630688
-0.0301437576 -0.5757423378 0.5815760022
-0.0303554805 -0.5768237652 0.5808315818
-0.0305676806 -0.5779076301 0.5800854834
-0.0171615569 -0.5073045737 0.6281225830
-0.0173446496 -0.5082375400 0.6274797689
-0.0175281256 -0.5091724595 0.6268356091
-0.0177119861 -0.5101093384 0.6261900992
-0.0184512976 -0.5138765711 0.6235944744
-0.0186370990 -0.5148233398 0.6229421505
-0.0268105940 -0.5564721665 0.5942460933
-0.0270144342 -0.5575108537 0.5935304375
-0.0305498560 -0.5755259343 0.5811180403
-0.0307620361 -0.5766071180 0.5803731043
-0.0309746944 -0.5776907387 0.5796264892
-0.0177222964 -0.5080362979 0.6270538922
-0.0179061677 -0.5089710067 0.6264092865
-0.0180904244 -0.5099076745 0.6257633299
-0.0186455186 -0.5127294930 0.6238173119
-0.0188313288 -0.5136740584 0.6231659088
-0.0190175305 -0.5146206137 0.6225131334
-0.0193911132 -0.5165197196 0.6212034481
-0.0307437949 -0.5742310188 0.5814038552
-0.0309559545 -0.5753095307 0.5806600783
-0.0311685917 -0.5763904708 0.5799146267
-0.0179160615 -0.5069025099 0.6272717193
-0.0180999432 -0.5078350557 0.6266280155
-0.0182842098 -0.5087695539 0.6259829640
-0.0190251502 -0.5125271932 0.6233891968
-0.0192113600 -0.5134715456 0.6227373432
-0.0193979620 -0.5144178876 0.6220841164
-0.0195849575 -0.5153662255 0.6214295118
-0.0311494373 -0.5740148582 0.5809464076
-0.0313620529 -0.5750931271 0.5802021163
-0.0315751473 -0.5761738236 0.5794561492
-0.0181094223 -0.5057710881 0.6274890918
-0.0182933139 -0.5067014779 0.6268462875
-0.0184775900 -0.5076338136 0.6262021388
-0.0186622519 -0.5085681011 0.6255566415
-0.0194047819 -0.5123248933 0.6229610817
-0.0195913911 -0.5132690329 0.6223087776
-0.0197783935 -0.5142151616 0.6216550993
-0.0199657902 -0.5151632857 0.6210000424
-0.0313424859 -0.5727230909 0.5812320945
-0.0315550796 -0.5737986977 0.5804889600
-0.0317681514 -0.5748767235 0.5797441543
-0.0186705662 -0.5065004460 0.6264208556
-0.0188552368 -0.5074325714 0.6257762620
-0.0195977977 -0.5111806491 0.6231843503
-0.0197844136 -0.5121225934 0.6225329666
-0.0199714223 -0.5130665201 0.6218802121
-0.0201588250 -0.5140124355 0.6212260823
-0.0317476731 -0.5725071729 0.5807751601
-0.0319607219 -0.5735825372 0.5800315124
-0.0321742499 -0.5746603199 0.5792861923
-0.0188631396 -0.5053694438 0.6266391160
-0.0190478185 -0.5062994141 0.6259954238
-0.0192328836 -0.5072313293 0.6253503853
-0.0199770307 -0.5109785617 0.6227566847
-0.0201640453 -0.5119202936 0.6221048515
-0.0203514535 -0.5128640074 0.6214516465
-0.0319398350 -0.5712185429 0.5810607188
-0.0321528604 -0.5722912549 0.5803182258
-0.0323663643 -0.5733663767 0.5795740648
-0.0194250708 -0.5060983822 0.6255699919
-0.0196105304 -0.5070300871 0.6249245086
-0.0201692437 -0.5098369301 0.6229799335
-0.0203562638 -0.5107764743 0.6223290192
-0.0205436770 -0.5117179937 0.6216767364
-0.0323445681 -0.5710028669 0.5806042965
-0.0325580476 -0.5720753369 0.5798612914
-0.0327720066 -0.5731502162 0.5791166172
-0.0194317774 -0.5040401867 0.6264323765
-0.0196168569 -0.5049677995 0.6257891402
-0.0198023232 -0.5058973502 0.6251445601
-0.0205480790 -0.5096350546 0.6225527166
-0.0207354968 -0.5105743868 0.6219013536
-0.0209233087 -0.5115156939 0.6212486213
-0.0325358467 -0.5697173634 0.5808897267
-0.0327493013 -0.5707871909 0.5801478742
-0.0329632348 -0.5718594189 0.5794043570
-0.0331776489 -0.5729340556 0.5786591696
-0.0196231571 -0.5029141020 0.6266501703
-0.0199937156 -0.5047669773 0.6253641523
-0.0201795755 -0.5056963183 0.6247191282
-0.0207394922 -0.5084960271 0.6227759451
-0.0209269142 -0.5094331792 0.6221254996
-0.0211147299 -0.5103722994 0.6214736881
-0.0329401267 -0.5695019288 0.5804338153
-0.0331540344 -0.5705715148 0.5796914519
-0.0333684220 -0.5716435009 0.5789474227
-0.0201847090 -0.5036389611 0.6255832867
-0.0203705743 -0.5045661552 0.6249391644
-0.0211179305 -0.5082943632 0.6223491759
-0.0213057495 -0.5092313037 0.6216982827
-0.0214939629 -0.5101702120 0.6210460226
-0.0216825720 -0.5111110941 0.6203923911
-0.0333444068 -0.5692864942 0.5799779040
-0.0335587675 -0.5703558388 0.5792350296
-0.0337736092 -0.5714275829 0.5784904883
-0.0203753047 -0.5025132941 0.6258019647
-0.0205611748 -0.5034383483 0.6251587418
-0.0207474329 -0.5043653330 0.6245141764
-0.0214963687 -0.5080926993 0.6219224066
-0.0216845847 -0.5090294283 0.6212710658
-0.0218731960 -0.5099681246 0.6206183570
-0.0335343535 -0.5680043473 0.5802637155
-0.0337486869 -0.5690710596 0.5795219926
-0.0339635006 -0.5701401628 0.5787786073
-0.0205655038 -0.5013899691 0.6260201877
-0.0207513785 -0.5023128902 0.6253778619
-0.0209376407 -0.5032377355 0.6247341969
-0.0211242916 -0.5041645109 0.6240891885
-0.0214987645 -0.5060238764 0.6227951250
-0.0216865889 -0.5069564787 0.6221460613
-0.0218748070 -0.5078910354 0.6214956374
-0.0220634199 -0.5088275529 0.6208438489
-0.0222524290 -0.5097660371 0.6201906915
-0.0339381815 -0.5677891536 0.5798083139
-0.0341529669 -0.5688556250 0.5790660813
-0.0343682338 -0.5699244868 0.5783221850
-0.0209411864 -0.5011897737 0.6255965261
-0.0211274523 -0.5021124863 0.6249537591
-0.0213141065 -0.5030371227 0.6243096520
-0.0218764113 -0.5058226342 0.6223692483
-0.0220646310 -0.5067550258 0.6217197388
-0.0222532452 -0.5076893715 0.6210688681
-0.0224422552 -0.5086256774 0.6204166319
-0.0341272528 -0.5665101113 0.5800939956
-0.0343420095 -0.5675739599 0.5793529123
-0.0345572470 -0.5686401904 0.5786101699
-0.0213168689 -0.5009895782 0.6251728645
-0.0215035260 -0.5019120824 0.6245296563
-0.0224426732 -0.5065535730 0.6212934163
-0.0226316835 -0.5074877076 0.6206420989
-0.0228210904 -0.5084238020 0.6199894150
-0.0230108951 -0.5093618623 0.6193353604
-0.0345306298 -0.5662951579 0.5796391026
-0.0347458375 -0.5673587662 0.5788975108
-0.0349615270 -0.5684247558 0.5781542586
-0.0216925515 -0.5007893828 0.6247492028
-0.0218795998 -0.5017116785 0.6241055535
-0.0220670381 -0.5026358970 0.6234605622
-0.0224430894 -0.5044901267 0.6221665371
-0.0226317049 -0.5054201499 0.6215174948
-0.0228207153 -0.5063521202 0.6208670937
-0.0230101218 -0.5072860437 0.6202153296
-0.0347188291 -0.5650192094 0.5799246544
-0.0349340067 -0.5660802046 0.5791842097
-0.0351496655 -0.5671435725 0.5784421092
-0.0218811842 -0.4996690165 0.6249682931
-0.0220682341 -0.5005891874 0.6243255412
-0.0222556736 -0.5015112746 0.6236814506
-0.0228203417 -0.5042890948 0.6217411052
-0.0230093517 -0.5052189078 0.6210916181
-0.0231987574 -0.5061506674 0.6204407712
-0.0233885600 -0.5070843798 0.6197885603
-0.0351217560 -0.5648044959 0.5794702690
-0.0353373837 -0.5658652512 0.5787293168
-0.0355534935 -0.5669283789 0.5779867076
-0.0220694252 -0.4985509764 0.6251869285
-0.0222564763 -0.4994690291 0.6245450717
-0.0224439167 -0.5003889919 0.6239018796
-0.0233869985 -0.5050176656 0.6206657414
-0.0237669983 -0.5068827159 0.6193617911
-0.0353090869 -0.5635316306 0.5797556906
-0.0355246830 -0.5645897823 0.5790158836
-0.0357407606 -0.5656502979 0.5782744239
-0.0224443278 -0.4983511966 0.6247641465
-0.0226317685 -0.4992690417 0.6241218504
-0.0235748464 -0.5038870309 0.6208902415
-0.0237646453 -0.5048164235 0.6202398646
-0.0239548416 -0.5057477618 0.6195881262
-0.0357115648 -0.5633171563 0.5793018116
-0.0359276099 -0.5643750688 0.5785614982
-0.0361441376 -0.5654353446 0.5778195310
-0.0228192303 -0.4981514168 0.6243413644
-0.0230070607 -0.4990690543 0.6236986290
-0.0237623022 -0.5027587558 0.6211142731
-0.0239520987 -0.5036859990 0.6204648097
-0.0241422921 -0.5046151813 0.6198139879
-0.0361140427 -0.5631026821 0.5788479326
-0.0363305368 -0.5641603553 0.5781071128
-0.0365475145 -0.5652203912 0.5773646381
-0.0228188630 -0.4961224794 0.6252009343
-0.0230063034 -0.4970361097 0.6245604233
-0.0231941329 -0.4979516370 0.6239185824
-0.0233823529 -0.4988690669 0.6232754076
-0.0235709644 -0.4997884056 0.6226308946
-0.0241391608 -0.5025579336 0.6206892852
-0.0243293510 -0.5034849670 0.6200393778
-0.0363000604 -0.5618331282 0.5791337293
-0.0365165205 -0.5628882079 0.5783940536
-0.0367334637 -0.5639456418 0.5776527274
-0.0235690355 -0.4977518571 0.6234958004
-0.0237576451 -0.4986690795 0.6228521862
-0.0245160195 -0.5023571115 0.6202642973
-0.0247066033 -0.5032839351 0.6196139459
-0.0248975858 -0.5042126970 0.6189622345
-0.0367020902 -0.5616188927 0.5786803556
-0.0369189984 -0.5626737336 0.5779401746
-0.0371363906 -0.5637309283 0.5771983420
-0.0235671147 -0.4957237476 0.6243571221
-0.0237553310 -0.4966369645 0.6237157360
-0.0239439381 -0.4975520773 0.6230730183
-0.0241329373 -0.4984690921 0.6224289648
-0.0247022988 -0.5012316073 0.6204887479
-0.0248928781 -0.5021562893 0.6198393094
-0.0250838556 -0.5030829032 0.6191885141
-0.0252752326 -0.5040114549 0.6185363578
-0.0368872472 -0.5603524004 0.5789660208
-0.0371041201 -0.5614046572 0.5782269818
-0.0373214763 -0.5624592594 0.5774862956
-0.0241298448 -0.4964373919 0.6232933924
-0.0243188407 -0.4973522975 0.6226502363
-0.0250787646 -0.5010309945 0.6200642030
-0.0252697368 -0.5019554672 0.6194143215
-0.0372888300 -0.5601384032 0.5785131512
-0.0375061499 -0.5611904218 0.5777736081
-0.0377239542 -0.5622447852 0.5770324166
-0.0243153663 -0.4953250159 0.6235133099
-0.0245043586 -0.4962378192 0.6228710488
-0.0246937433 -0.4971525177 0.6222274542
-0.0252642639 -0.4999080433 0.6202886282
-0.0254552304 -0.5008303817 0.6196396581
-0.0256465955 -0.5017546450 0.6189893335
-0.0258383603 -0.5026808393 0.6183376504
-0.0374731296 -0.5588749621 0.5787986849
-0.0376904128 -0.5599244059 0.5780602816
-0.0379081797 -0.5609761863 0.5773202343
-0.0245005039 -0.4942149422 0.6237327723
-0.0246894922 -0.4951256500 0.6230914039
-0.0248788725 -0.4960382466 0.6224487052
-0.0250686459 -0.4969527379 0.6218046722
-0.0256403377 -0.4997076394 0.6198645254
-0.0258316962 -0.5006297689 0.6192151132
-0.0260234541 -0.5015538229 0.6185643456
-0.0262156126 -0.5024798074 0.6179122185
-0.0378742664 -0.5586612025 0.5783463183
-0.0380919956 -0.5597104087 0.5776074120
-0.0383102096 -0.5607619508 0.5768668606
-0.0248742426 -0.4940157826 0.6233113028
-0.0250636180 -0.4949262841 0.6226694978
-0.0252533863 -0.4958386740 0.6220263616
-0.0258250599 -0.4985872330 0.6200889248
-0.0260164115 -0.4995072355 0.6194404225
-0.0262081620 -0.5004291561 0.6187905683
-0.0264003128 -0.5013530007 0.6181393577
-0.0265928649 -0.5022787754 0.6174867867
-0.0382754031 -0.5584474429 0.5778939517
-0.0384935784 -0.5594964114 0.5771545423
-0.0250586109 -0.4929082100 0.6235307471
-0.0252479812 -0.4938166231 0.6228898333
-0.0254377439 -0.4947269182 0.6222475917
-0.0256279001 -0.4956391014 0.6216040180
-0.0262007425 -0.4983870375 0.6196652632
-0.0263924853 -0.4993068316 0.6190163197
-0.0265846279 -0.5002285433 0.6183660234
-0.0384584036 -0.5571872797 0.5781798555
-0.0386765399 -0.5582336834 0.5774415851
-0.0388951612 -0.5592824142 0.5767016727
-0.0254319632 -0.4927092563 0.6231097134
-0.0256217199 -0.4936174635 0.6224683639
-0.0258118697 -0.4945275523 0.6218256856
-0.0263846903 -0.4972691677 0.6198896365
-0.0265764251 -0.4981868421 0.6192416015
-0.0267685591 -0.4991064277 0.6185922169
-0.0269610937 -0.5000279304 0.6179414784
-0.0271540301 -0.5009513564 0.6172893819
-0.0388590953 -0.5569737573 0.5777279908
-0.0390776766 -0.5580199238 0.5769892185
-0.0392967440 -0.5590684169 0.5762488031
-0.0256155652 -0.4916041768 0.6233291392
-0.0258053155 -0.4925103027 0.6226886796
-0.0259954586 -0.4934183039 0.6220468944
-0.0261859956 -0.4943281865 0.6214037795
-0.0267599825 -0.4970691803 0.6194664151
-0.0269521076 -0.4979866466 0.6188179399
-0.0271446329 -0.4989060238 0.6181681141
-0.0390412462 -0.5557166239 0.5780137618
-0.0392597870 -0.5567602349 0.5772761261
-0.0394788133 -0.5578061642 0.5765368519
-0.0259885320 -0.4914054286 0.6229085403
-0.0261786679 -0.4923113490 0.6222676458
-0.0263691973 -0.4932191444 0.6216254249
-0.0265601214 -0.4941288206 0.6209818734
-0.0271352747 -0.4968691929 0.6190431938
-0.0273277902 -0.4977864512 0.6183942783
-0.0275207067 -0.4987056198 0.6177440113
-0.0394414938 -0.5555033381 0.5775623979
-0.0396604787 -0.5565467125 0.5768242614
-0.0398799501 -0.5575924047 0.5760844853
-0.0261713704 -0.4903028343 0.6231279473
-0.0263614987 -0.4912066804 0.6224879413
-0.0265520202 -0.4921123953 0.6218466121
-0.0267429359 -0.4930199848 0.6212039554
-0.0273180615 -0.4957540591 0.6192679799
-0.0275105669 -0.4966692055 0.6186199724
-0.0277034728 -0.4975862557 0.6179706166
-0.0278967804 -0.4985052159 0.6173199085
-0.0396227982 -0.5542492243 0.5778480358
-0.0398417414 -0.5552900524 0.5771110339
-0.0400611704 -0.5563331901 0.5763723967
-0.0265439523 -0.4901042911 0.6227077823
-0.0267344655 -0.4910079322 0.6220673424
-0.0269253725 -0.4919134416 0.6214255783
-0.0271166746 -0.4928208252 0.6207824860
-0.0276929641 -0.4955542793 0.6188451979
-0.0278858591 -0.4964692181 0.6181967510
-0.0280791554 -0.4973860603 0.6175469550
-0.0282728542 -0.4983048120 0.6168958057
-0.0400226028 -0.5540361746 0.5773971715
-0.0402419890 -0.5550767666 0.5766596700
-0.0404618621 -0.5561196677 0.5759205320
-0.0267260299 -0.4890041741 0.6229271701
-0.0269165343 -0.4899057480 0.6222876172
-0.0271074322 -0.4908091840 0.6216467434
-0.0272987248 -0.4917144880 0.6210045445
-0.0274904133 -0.4926216657 0.6203610165
-0.0280678667 -0.4953544995 0.6184224158
-0.0282611513 -0.4962692307 0.6177735296
-0.0284548380 -0.4971858649 0.6171232933
-0.0404224073 -0.5538231250 0.5769463073
-0.0406422366 -0.5548634809 0.5762083061
-0.0408625538 -0.5559061453 0.5754686673
-0.0270982279 -0.4888058355 0.6225074381
-0.0272891163 -0.4897072048 0.6218674522
-0.0274803989 -0.4906104358 0.6212261445
-0.0276720771 -0.4915155343 0.6205835108
-0.0282494968 -0.4942420930 0.6186476127
-0.0284427693 -0.4951547197 0.6179996338
-0.0286364434 -0.4960692432 0.6173503082
-0.0288305205 -0.4969856694 0.6166996317
-0.0315906228 -0.5100187895 0.6074459184
-0.0317908980 -0.5109644830 0.6067744617
-0.0319915969 -0.5119121773 0.6061015843
-0.0408222118 -0.5536100753 0.5764954431
-0.0410424842 -0.5546501951 0.5757569422
-0.0274704258 -0.4886074970 0.6220877061
-0.0276616982 -0.4895086616 0.6214472872
-0.0278533657 -0.4904116876 0.6208055455
-0.0286240106 -0.4940425203 0.6182252691
-0.0288176719 -0.4949549399 0.6175768518
-0.0290117356 -0.4958692558 0.6169270868
-0.0292062031 -0.4967854740 0.6162759701
-0.0305788871 -0.5032527657 0.6116799444
-0.0307766304 -0.5041844177 0.6110178595
-0.0309747890 -0.5051180263 0.6103543841
-0.0311733642 -0.5060535977 0.6096895138
-0.0313723574 -0.5069911380 0.6090232442
-0.0315717697 -0.5079306536 0.6083555710
-0.0317716027 -0.5088721507 0.6076864896
-0.0319718575 -0.5098156354 0.6070159956
-0.0321725356 -0.5107611142 0.6063440845
-0.0323736382 -0.5117085934 0.6056707519
-0.0276513621 -0.4875100535 0.6223075064
-0.0278426238 -0.4884091584 0.6216679740
-0.0280342802 -0.4893101184 0.6210271221
-0.0282263324 -0.4902129394 0.6203849466
-0.0288048765 -0.4929326253 0.6184504368
-0.0289985245 -0.4938429477 0.6178029255
-0.0291925745 -0.4947551601 0.6171540697
-0.0293870278 -0.4956692684 0.6165038654
-0.0309573253 -0.5030511018 0.6112531752
-0.0311554656 -0.5039825422 0.6105906426
-0.0313540221 -0.5049159388 0.6099267185
-0.0315529959 -0.5058512978 0.6092613987
-0.0317523885 -0.5067886253 0.6085946786
-0.0319522012 -0.5077279276 0.6079265539
-0.0321524353 -0.5086692108 0.6072570201
-0.0323530922 -0.5096124814 0.6065860728
-0.0325541731 -0.5105577455 0.6059137074
-0.0327556795 -0.5115050095 0.6052399195
-0.0282148218 -0.4882108199 0.6212482420
-0.0284068621 -0.4891115753 0.6206069571
-0.0285992991 -0.4900141911 0.6199643476
-0.0291790023 -0.4927332594 0.6180285307
-0.0293730383 -0.4936433751 0.6173805818
-0.0295674771 -0.4945553803 0.6167312877
-0.0297623200 -0.4954692810 0.6160806441
-0.0299575683 -0.4963850831 0.6154286468
-0.0311376420 -0.5019201585 0.6114879982
-0.0313357636 -0.5028494379 0.6108264059
-0.0315343009 -0.5037806668 0.6101634256
-0.0317332551 -0.5047138514 0.6094990530
-0.0319326276 -0.5056489980 0.6088332836
-0.0321324197 -0.5065861126 0.6081661130
-0.0323326327 -0.5075252015 0.6074975369
-0.0325332680 -0.5084662710 0.6068275507
-0.0327343268 -0.5094093273 0.6061561500
-0.0329358106 -0.5103543767 0.6054833303
-0.0283949917 -0.4871137848 0.6214689066
-0.0285870198 -0.4880124813 0.6208285100
-0.0287794441 -0.4889130321 0.6201867921
-0.0289722659 -0.4898154429 0.6195437487
-0.0295531282 -0.4925338935 0.6176066247
-0.0297475521 -0.4934438025 0.6169582382
-0.0299423797 -0.4943556005 0.6163085056
-0.0303332508 -0.4961848877 0.6150049851
-0.0309226167 -0.4989431348 0.6130395027
-0.0311198928 -0.4998663922 0.6123816044
-0.0313175815 -0.5007915805 0.6117223302
-0.0315156841 -0.5017187057 0.6110616757
-0.0317142019 -0.5026477739 0.6103996367
-0.0319131361 -0.5035787913 0.6097362087
-0.0321124881 -0.5045117640 0.6090713875
-0.0323122593 -0.5054466981 0.6084051685
-0.0325124509 -0.5063835998 0.6077375474
-0.0327130642 -0.5073224754 0.6070685198
-0.0329141006 -0.5082633312 0.6063980812
-0.0331155615 -0.5092061732 0.6057262272
-0.0333174482 -0.5101510080 0.6050529532
-0.0287668065 -0.4869156505 0.6210496067
-0.0289592178 -0.4878141428 0.6204087780
-0.0291520261 -0.4887144889 0.6197666270
-0.0297328454 -0.4914267083 0.6178321996
-0.0299272540 -0.4923345276 0.6171847186
-0.0301220659 -0.4932442298 0.6165358946
-0.0303172823 -0.4941558207 0.6158857236
-0.0314971451 -0.4996653603 0.6119561725
-0.0316952283 -0.5005903384 0.6112964534
-0.0318937262 -0.5015172529 0.6106353532
-0.0320926401 -0.5024461100 0.6099728674
-0.0322919713 -0.5033769159 0.6093089918
-0.0324917212 -0.5043096766 0.6086437219
-0.0326918910 -0.5052443982 0.6079770534
-0.0328924820 -0.5061810871 0.6073089818
-0.0330934957 -0.5071197494 0.6066395028
-0.0332949333 -0.5080603913 0.6059686118
-0.0334967962 -0.5090030192 0.6052963044
-0.0291386213 -0.4867175161 0.6206303069
-0.0293314157 -0.4876158042 0.6199890460
-0.0295246080 -0.4885159458 0.6193464620
-0.0301065840 -0.4912275487 0.6174107301
-0.0303013799 -0.4921351617 0.6167628125
-0.0304965797 -0.4930446572 0.6161135510
-0.0306921849 -0.4939560409 0.6154629415
-0.0308881965 -0.4948693188 0.6148109799
-0.0318743974 -0.4994643284 0.6115307407
-0.0320728751 -0.5003890962 0.6108705767
-0.0322717683 -0.5013158001 0.6102090307
-0.0324710784 -0.5022444461 0.6095460982
-0.0326708066 -0.5031750404 0.6088817749
-0.0328709542 -0.5041075891 0.6082160564
-0.0330715227 -0.5050420984 0.6075489383
-0.0332725132 -0.5059785744 0.6068804162
-0.0334739272 -0.5069170233 0.6062104857
-0.0336757660 -0.5078574515 0.6055391423
-0.0338780309 -0.5087998651 0.6048663816
-0.0291252715 -0.4847287502 0.6214904372
-0.0293176557 -0.4856231452 0.6208513800
-0.0295104360 -0.4865193818 0.6202110070
-0.0297036137 -0.4874174657 0.6195693140
-0.0302855432 -0.4901228585 0.6176362744
-0.0304803227 -0.4910283891 0.6169892607
-0.0306755057 -0.4919357959 0.6163409064
-0.0308710936 -0.4928450846 0.6156912074
-0.0310670875 -0.4937562611 0.6150401595
-0.0312634887 -0.4946693314 0.6143877585
-0.0322516498 -0.4992632964 0.6111053088
-0.0324505219 -0.5001878541 0.6104447000
-0.0326498105 -0.5011143473 0.6097827081
-0.0328495167 -0.5020427822 0.6091193289
-0.0330496418 -0.5029731650 0.6084545579
-0.0332501873 -0.5039055017 0.6077883908
-0.0334511544 -0.5048397985 0.6071208232
-0.0336525444 -0.5057760616 0.6064518506
-0.0338543587 -0.5067142973 0.6057814687
-0.0340565986 -0.5076545116 0.6051096729
-0.0294963223 -0.4845310230 0.6210719990
-0.0296890881 -0.4854252146 0.6204325114
-0.0298822508 -0.4863212474 0.6197917071
-0.0300758117 -0.4872191271 0.6191495820
-0.0306588955 -0.4899239049 0.6172152407
-0.0308540614 -0.4908292296 0.6165677912
-0.0310496316 -0.4917364300 0.6159190003
-0.0314419901 -0.4935564813 0.6146173775
-0.0324300513 -0.4981398462 0.6113395510
-0.0326289021 -0.4990622645 0.6106798770
-0.0328281688 -0.4999866119 0.6100188233
-0.0330278526 -0.5009128945 0.6093563856
-0.0332279549 -0.5018411183 0.6086925596
-0.0336294203 -0.5037034143 0.6073607253
-0.0338307860 -0.5046374987 0.6066927081
-0.0340325755 -0.5055735489 0.6060232850
-0.0342347902 -0.5065115712 0.6053524516
-0.0344374313 -0.5074515718 0.6046802034
-0.0300605205 -0.4852272840 0.6200136428
-0.0302540656 -0.4861231130 0.6193724072
-0.0310322479 -0.4897249512 0.6167942069
-0.0312278001 -0.4906300700 0.6161463217
-0.0314237574 -0.4915370641 0.6154970942
-0.0316201212 -0.4924459393 0.6148465202
-0.0318168927 -0.4933567015 0.6141945954
-0.0326080809 -0.4970187382 0.6115733049
-0.0328069100 -0.4979390241 0.6109145631
-0.0330061544 -0.4988612326 0.6102544451
-0.0332058156 -0.4997853698 0.6095929465
-0.0334058947 -0.5007114417 0.6089300631
-0.0336063932 -0.5016394544 0.6082657904
-0.0338073123 -0.5025694141 0.6076001241
-0.0340086534 -0.5035013268 0.6069330597
-0.0342104177 -0.5044351988 0.6062645930
-0.0344126067 -0.5053710362 0.6055947195
-0.0346152217 -0.5063088451 0.6049234346
-0.0302384238 -0.4841355686 0.6202351224
-0.0304319529 -0.4850293535 0.6195947741
-0.0306258804 -0.4859249787 0.6189531073
-0.0310149359 -0.4877217731 0.6176658019
-0.0312100663 -0.4886229537 0.6170201550
-0.0314056002 -0.4895259975 0.6163731731
-0.0316015387 -0.4904309104 0.6157248522
-0.0317978833 -0.4913376982 0.6150751881
-0.0327857397 -0.4958999651 0.6118065719
-0.0329845467 -0.4968181254 0.6111487600
-0.0331837686 -0.4977382019 0.6104895752
-0.0333834067 -0.4986602006 0.6098290133
-0.0335834624 -0.4995841276 0.6091670698
-0.0337839368 -0.5005099889 0.6085037406
-0.0339848315 -0.5014377905 0.6078390211
-0.0341861475 -0.5023675387 0.6071729071
-0.0343878864 -0.5032992394 0.6065053942
-0.0345900494 -0.5042328989 0.6058364779
-0.0347926379 -0.5051685234 0.6051661539
-0.0304159620 -0.4830460941 0.6204561474
-0.0308033852 -0.4848314229 0.6191759055
-0.0309976952 -0.4857268443 0.6185338074
-0.0313875178 -0.4875232299 0.6172456368
-0.0315830330 -0.4884242054 0.6165995560
-0.0317789525 -0.4893270438 0.6159521394
-0.0319752774 -0.4902317509 0.6153033828
-0.0321720091 -0.4911383323 0.6146532820
-0.0325666979 -0.4929571419 0.6133490313
-0.0327646575 -0.4938693818 0.6126948730
-0.0333610125 -0.4966175126 0.6107242151
-0.0335606273 -0.4975373798 0.6100645873
-0.0337606591 -0.4984591687 0.6094035814
-0.0339611092 -0.4993828855 0.6087411931
-0.0341619790 -0.5003085361 0.6080774180
-0.0343632697 -0.5012361266 0.6074122519
-0.0345649828 -0.5021656632 0.6067456902
-0.0347671195 -0.5030971520 0.6060777287
-0.0349696811 -0.5040305991 0.6054083628
-0.0351726691 -0.5049660107 0.6047375883
-0.0305931361 -0.4819588538 0.6206767191
-0.0307866319 -0.4828485698 0.6200381385
-0.0309805254 -0.4837401141 0.6193982458
-0.0311748176 -0.4846334923 0.6187570368
-0.0313695100 -0.4855287100 0.6181145076
-0.0317600998 -0.4873246867 0.6168254718
-0.0319559998 -0.4882254572 0.6161789571
-0.0321523048 -0.4891280902 0.6155311056
-0.0323490161 -0.4900325913 0.6148819133
-0.0325461350 -0.4909389664 0.6142313759
-0.0329416005 -0.4927573621 0.6129262493
-0.0335378873 -0.4954991573 0.6109583663
-0.0337374783 -0.4964168998 0.6102996702
-0.0339374859 -0.4973365576 0.6096395994
-0.0341379114 -0.4982581368 0.6089781495
-0.0343387560 -0.4991816433 0.6083153164
-0.0345400211 -0.5001070833 0.6076510955
-0.0347417080 -0.5010344627 0.6069854826
-0.0349438180 -0.5019637878 0.6063184733
-0.0351463525 -0.5028950646 0.6056500631
-0.0353493128 -0.5038282992 0.6049802477
-0.0311573018 -0.4826510456 0.6196201297
-0.0313515761 -0.4835423869 0.6189798075
-0.0315462500 -0.4844355617 0.6183381682
-0.0321326818 -0.4871261436 0.6164053067
-0.0323289665 -0.4880267090 0.6157583581
-0.0325256571 -0.4889291365 0.6151100718
-0.0327227548 -0.4898334317 0.6144604438
-0.0329202608 -0.4907396006 0.6138094698
-0.0335152418 -0.4934694070 0.6118484302
-0.0339139611 -0.4952987533 0.6105342635
-0.0341139442 -0.4962162869 0.6098751253
-0.0343143446 -0.4971357354 0.6092146115
-0.0345151637 -0.4980571048 0.6085527177
-0.0347164028 -0.4989804012 0.6078894396
-0.0349180632 -0.4999056305 0.6072247730
-0.0351201463 -0.5008327988 0.6065587133
-0.0353226533 -0.5017619123 0.6058912563
-0.0355255856 -0.5026929771 0.6052223976
-0.0313337158 -0.4815642103 0.6198415587
-0.0315279718 -0.4824535213 0.6192021209
-0.0317226269 -0.4833446597 0.6185613692
-0.0319176824 -0.4842376311 0.6179192995
-0.0323089996 -0.4860290958 0.6166311899
-0.0325052637 -0.4869276004 0.6159851417
-0.0327019332 -0.4878279608 0.6153377592
-0.0328990094 -0.4887301828 0.6146890381
-0.0330964934 -0.4896342722 0.6140389743
-0.0332943867 -0.4905402347 0.6133875637
-0.0336914057 -0.4923578025 0.6120806852
-0.0340900767 -0.4941829332 0.6107683688
-0.0342900349 -0.4950983494 0.6101101607
-0.0344904100 -0.4960156741 0.6094505804
-0.0346912033 -0.4969349133 0.6087896235
-0.0348924160 -0.4978560729 0.6081272858
-0.0350940496 -0.4987791590 0.6074635629
-0.0352961053 -0.4997041777 0.6067984505
-0.0354985845 -0.5006311349 0.6061319441
-0.0357014885 -0.5015600369 0.6054640394
-0.0359048186 -0.5024908897 0.6047947320
-0.0361085762 -0.5034236995 0.6041240175
-0.0317040057 -0.4813668885 0.6194239784
-0.0318986417 -0.4822559970 0.6187841121
-0.0320936777 -0.4831469325 0.6181429309
-0.0322891148 -0.4840397006 0.6175004309
-0.0324849543 -0.4849343069 0.6168566079
-0.0326811976 -0.4858307572 0.6162114579
-0.0328778457 -0.4867290572 0.6155649767
-0.0330749000 -0.4876292126 0.6149171602
-0.0332723617 -0.4885312291 0.6142680043
-0.0336685125 -0.4903408688 0.6129656576
-0.0340663083 -0.4921580227 0.6116579031
-0.0344657592 -0.4939827378 0.6103447071
-0.0346661087 -0.4948979455 0.6096860579
-0.0348668758 -0.4958150613 0.6090260355
-0.0350680619 -0.4967340911 0.6083646356
-0.0352696684 -0.4976550410 0.6077018540
-0.0354716964 -0.4985779169 0.6070376862
-0.0356741475 -0.4995027248 0.6063721279
-0.0358770228 -0.5004294710 0.6057051748
-0.0360803237 -0.5013581614 0.6050368225
-0.0316854607 -0.4793972121 0.6202830571
-0.0318796790 -0.4802824818 0.6196453815
-0.0320742956 -0.4811695668 0.6190063982
-0.0322693116 -0.4820584727 0.6183661033
-0.0324647284 -0.4829492053 0.6177244927
-0.0330533955 -0.4856324187 0.6157917259
-0.0332504276 -0.4865305140 0.6151448116
-0.0334478667 -0.4874304644 0.6144965613
-0.0336457140 -0.4883322755 0.6138469705
-0.0338439708 -0.4892359530 0.6131960354
-0.0340426384 -0.4901415029 0.6125437515
-0.0342417179 -0.4910489309 0.6118901149
-0.0344412109 -0.4919582429 0.6112351211
-0.0346411184 -0.4928694448 0.6105787661
-0.0348414418 -0.4937825423 0.6099210455
-0.0350421825 -0.4946975416 0.6092619551
-0.0352433416 -0.4956144485 0.6086014906
-0.0354449206 -0.4965332690 0.6079396477
-0.0356469207 -0.4974540090 0.6072764221
-0.0358493432 -0.4983766747 0.6066118095
-0.0360521896 -0.4993012720 0.6059458054
-0.0362554611 -0.5002278071 0.6052784056
-0.0364591590 -0.5011562860 0.6046096056
-0.0366632847 -0.5020867148 0.6039394010
-0.0322495896 -0.4800853621 0.6192282289
-0.0324445855 -0.4809722450 0.6185888180
-0.0326399816 -0.4818609484 0.6179480945
-0.0328357792 -0.4827514780 0.6173060544
-0.0332285839 -0.4845380382 0.6160180081
-0.0334255935 -0.4854340801 0.6153719938
-0.0336230096 -0.4863319709 0.6147246466
-0.0338208335 -0.4872317162 0.6140759623
-0.0340190663 -0.4881333218 0.6134259368
-0.0342177095 -0.4890367935 0.6127745659
-0.0344167642 -0.4899421370 0.6121218454
-0.0346162318 -0.4908493583 0.6114677712
-0.0348161135 -0.4917584631 0.6108123391
-0.0350164106 -0.4926694573 0.6101555447
-0.0352171244 -0.4935823469 0.6094973838
-0.0354182562 -0.4944971377 0.6088378523
-0.0356198074 -0.4954138357 0.6081769457
-0.0358217792 -0.4963324468 0.6075146598
-0.0360241730 -0.4972529771 0.6068509902
-0.0362269901 -0.4981754326 0.6061859327
-0.0364302317 -0.4990998192 0.6055194829
-0.0366338993 -0.5000261432 0.6048516363
-0.0368379942 -0.5009544105 0.6041823886
-0.0324245249 -0.4790033762 0.6194496057
-0.0326195002 -0.4798882425 0.6188110764
-0.0328148753 -0.4807749233 0.6181712377
-0.0330106515 -0.4816634242 0.6175300856
-0.0336003987 -0.4843399038 0.6155987083
-0.0337977915 -0.4852357416 0.6149522618
-0.0339955916 -0.4861334277 0.6143044816
-0.0341938002 -0.4870329680 0.6136553633
-0.0343924186 -0.4879343681 0.6130049030
-0.0345914482 -0.4888376339 0.6123530964
-0.0347908900 -0.4897427711 0.6116999393
-0.0349907456 -0.4906497857 0.6110454276
-0.0351910161 -0.4915586833 0.6103895570
-0.0353917027 -0.4924694699 0.6097323233
-0.0355928070 -0.4933821515 0.6090737222
-0.0357943300 -0.4942967338 0.6084137494
-0.0359962732 -0.4952132229 0.6077524008
-0.0361986379 -0.4961316247 0.6070896719
-0.0364014253 -0.4970519452 0.6064255584
-0.0366046369 -0.4979741904 0.6057600560
-0.0368082738 -0.4988983664 0.6050931604
-0.0370123376 -0.4998244793 0.6044248670
-0.0372168295 -0.5007525351 0.6037551717
-0.0325991026 -0.4779236022 0.6196705299
-0.0329894108 -0.4796911228 0.6183939239
-0.0331851652 -0.4805776015 0.6177536575
-0.0333813214 -0.4814658999 0.6171120768
-0.0337748443 -0.4832479782 0.6158249563
-0.0339722135 -0.4841417695 0.6151794084
-0.0341699895 -0.4850374030 0.6145325298
-0.0343681735 -0.4859348845 0.6138843165
-0.0345667669 -0.4868342198 0.6132347644
-0.0347657709 -0.4877354144 0.6125838693
-0.0349651868 -0.4886384743 0.6119316269
-0.0351650159 -0.4895434053 0.6112780333
-0.0353652594 -0.4904502130 0.6106230840
-0.0355659186 -0.4913589035 0.6099667750
-0.0357669949 -0.4922694825 0.6093091019
-0.0359684896 -0.4931819560 0.6086500605
-0.0361704038 -0.4940963299 0.6079896466
-0.0363727391 -0.4950126100 0.6073278559
-0.0365754966 -0.4959308025 0.6066646839
-0.0367786776 -0.4968509132 0.6060001265
-0.0369822837 -0.4977729483 0.6053341793
-0.0371863160 -0.4986969136 0.6046668378
-0.0329682570 -0.4777268856 0.6192542302
-0.0331635891 -0.4786095403 0.6186161544
-0.0333593214 -0.4794940032 0.6179767714
-0.0335554551 -0.4803802797 0.6173360773
-0.0341462767 -0.4830500477 0.6154060877
-0.0343440283 -0.4839436351 0.6147601085
-0.0345421875 -0.4848390645 0.6141127978
-0.0347407555 -0.4857363414 0.6134641515
-0.0349397337 -0.4866354715 0.6128141654
-0.0351391232 -0.4875364608 0.6121628355
-0.0353389255 -0.4884393148 0.6115101575
-0.0357397732 -0.4902506404 0.6102007404
-0.0359408212 -0.4911591237 0.6095439929
-0.0361422871 -0.4920694951 0.6088858805
-0.0363441721 -0.4929817606 0.6082263989
-0.0365464776 -0.4938959260 0.6075655438
-0.0367492049 -0.4948119972 0.6069033110
-0.0369523552 -0.4957299803 0.6062396960
-0.0371559300 -0.4966498813 0.6055746947
-0.0373599305 -0.4975717061 0.6049083026
-0.0375643581 -0.4984954608 0.6042405153
-0.0333374114 -0.4775301689 0.6188379305
-0.0335331212 -0.4784126223 0.6181994287
-0.0337292320 -0.4792968835 0.6175596189
-0.0339257450 -0.4801829580 0.6169184971
-0.0345177091 -0.4828521171 0.6149872190
-0.0347158431 -0.4837455008 0.6143408086
-0.0349143854 -0.4846407259 0.6136930658
-0.0351133375 -0.4855377982 0.6130439865
-0.0353127004 -0.4864367233 0.6123935665
-0.0355124756 -0.4873375071 0.6117418017
-0.0357126642 -0.4882401552 0.6110886880
-0.0359132676 -0.4891446735 0.6104342211
-0.0361142870 -0.4900510678 0.6097783968
-0.0363157238 -0.4909593439 0.6091212109
-0.0365175793 -0.4918695077 0.6084626591
-0.0367198547 -0.4927815651 0.6078027373
-0.0369225514 -0.4936955221 0.6071414410
-0.0371256707 -0.4946113844 0.6064787661
-0.0373292139 -0.4955291582 0.6058147081
-0.0375331823 -0.4964488494 0.6051492628
-0.0377375773 -0.4973704640 0.6044824258
-0.0335108786 -0.4764530019 0.6190592537
-0.0337065658 -0.4773334522 0.6184216308
-0.0339026533 -0.4782157044 0.6177827030
-0.0340991426 -0.4790997639 0.6171424664
-0.0342960348 -0.4799856362 0.6165009168
-0.0348891415 -0.4826541865 0.6145683504
-0.0350876579 -0.4835473664 0.6139215087
-0.0352865834 -0.4844423874 0.6132733338
-0.0356856671 -0.4862379751 0.6119729675
-0.0358858279 -0.4871385534 0.6113207680
-0.0360864029 -0.4880409956 0.6106672185
-0.0362873934 -0.4889453076 0.6100123150
-0.0364888009 -0.4898514952 0.6093560532
-0.0366906264 -0.4907595641 0.6086984288
-0.0368928715 -0.4916695203 0.6080394377
-0.0370955373 -0.4925813697 0.6073790756
-0.0372986252 -0.4934951181 0.6067173382
-0.0375021365 -0.4944107716 0.6060542212
-0.0377060725 -0.4953283360 0.6053897202
-0.0379104346 -0.4962478174 0.6047238310
-0.0381152241 -0.4971692218 0.6040565491
-0.0338796560 -0.4762564861 0.6186433791
-0.0340757201 -0.4771367356 0.6180053311
-0.0342721855 -0.4780187864 0.6173659773
-0.0344690532 -0.4789026442 0.6167253139
-0.0350620838 -0.4815651147 0.6147954246
-0.0352605739 -0.4824562559 0.6141494818
-0.0354594726 -0.4833492321 0.6135022088
-0.0356587814 -0.4842440488 0.6128536017
-0.0358585014 -0.4851407118 0.6122036564
-0.0362591802 -0.4869395997 0.6108997342
-0.0364601415 -0.4878418361 0.6102457490
-0.0366615193 -0.4887459417 0.6095904089
-0.0368633147 -0.4896519225 0.6089337095
-0.0370655290 -0.4905597843 0.6082756468
-0.0372681637 -0.4914695329 0.6076162164
-0.0374712199 -0.4923811743 0.6069554140
-0.0376746990 -0.4932947142 0.6062932354
-0.0378786023 -0.4942101588 0.6056296763
-0.0380829312 -0.4951275139 0.6049647323
-0.0382876869 -0.4960467855 0.6042983991
-0.0342484335 -0.4760599703 0.6182275045
-0.0344448745 -0.4769400189 0.6175890314
-0.0346417176 -0.4778218685 0.6169492517
-0.0348389638 -0.4787055246 0.6163081613
-0.0350366146 -0.4795909927 0.6156657564
-0.0352346711 -0.4804782785 0.6150220327
-0.0354331346 -0.4813673875 0.6143769863
-0.0356320062 -0.4822583253 0.6137306131
-0.0358312874 -0.4831510977 0.6130829089
-0.0360309794 -0.4840457103 0.6124338697
-0.0362310833 -0.4849421687 0.6117834913
-0.0364316006 -0.4858404787 0.6111317696
-0.0366325325 -0.4867406460 0.6104787004
-0.0368338802 -0.4876426765 0.6098242795
-0.0370356451 -0.4885465758 0.6091685028
-0.0372378285 -0.4894523499 0.6085113659
-0.0374404316 -0.4903600045 0.6078528647
-0.0376434559 -0.4912695455 0.6071929950
-0.0378469025 -0.4921809788 0.6065317523
-0.0380507728 -0.4930943103 0.6058691326
-0.0382550681 -0.4940095460 0.6052051314
-0.0384597898 -0.4949266917 0.6045397444
-0.0346172109 -0.4758634545 0.6178116299
-0.0348140289 -0.4767433022 0.6171727317
-0.0350112497 -0.4776249505 0.6165325260
-0.0352088744 -0.4785084049 0.6158910088
-0.0356053410 -0.4802807542 0.6146040239
-0.0358041853 -0.4811696603 0.6139585480
-0.0360034386 -0.4820603948 0.6133117445
-0.0362031022 -0.4829529634 0.6126636091
-0.0364031774 -0.4838473717 0.6120141377
-0.0366036653 -0.4847436255 0.6113633263
-0.0368045674 -0.4856417305 0.6107111707
-0.0370058848 -0.4865416924 0.6100576667
-0.0372076189 -0.4874435169 0.6094028101
-0.0374097710 -0.4883472100 0.6087465967
-0.0376123423 -0.4892527773 0.6080890223
-0.0378153342 -0.4901602247 0.6074300827
-0.0380187480 -0.4910695581 0.6067697736
-0.0382225850 -0.4919807834 0.6061080907
-0.0384268466 -0.4928939064 0.6054450298
-0.0386315339 -0.4938089332 0.6047805864
-0.0388366485 -0.4947258696 0.6041147564
-0.0347891957 -0.4747890864 0.6180337743
-0.0349859883 -0.4756669387 0.6173957553
-0.0351831833 -0.4765465856 0.6167564320
-0.0353807818 -0.4774280326 0.6161158003
-0.0359760110 -0.4800832299 0.6141860151
-0.0361752361 -0.4809719330 0.6135401098
-0.0363748710 -0.4818624642 0.6128928758
-0.0365749170 -0.4827548290 0.6122443092
-0.0367753753 -0.4836490331 0.6115944057
-0.0369762473 -0.4845450823 0.6109431613
-0.0371775341 -0.4854429823 0.6102905717
-0.0373792371 -0.4863427387 0.6096366329
-0.0375813576 -0.4872443574 0.6089813406
-0.0377838968 -0.4881478441 0.6083246906
-0.0379868561 -0.4890532046 0.6076666787
-0.0381902368 -0.4899604449 0.6070073007
-0.0383940402 -0.4908695707 0.6063465522
-0.0385982676 -0.4917805879 0.6056844291
-0.0388029204 -0.4926935025 0.6050209269
-0.0390079998 -0.4936083203 0.6043560415
-0.0392135072 -0.4945250474 0.6036897685
-0.0349608300 -0.4737169081 0.6182554659
-0.0351575969 -0.4745927711 0.6176183239
-0.0353547658 -0.4754704229 0.6169798807
-0.0355523377 -0.4763498689 0.6163401322
-0.0357503139 -0.4772311146 0.6156990746
-0.0363466809 -0.4798857056 0.6137680063
-0.0365462869 -0.4807742058 0.6131216715
-0.0367463034 -0.4816645336 0.6124740072
-0.0369467318 -0.4825566946 0.6118250093
-0.0371475733 -0.4834506946 0.6111746737
-0.0373488292 -0.4843465392 0.6105229962
-0.0375505008 -0.4852442341 0.6098699728
-0.0377525894 -0.4861437850 0.6092155991
-0.0379550963 -0.4870451978 0.6085598711
-0.0381580227 -0.4879484782 0.6079027845
-0.0383613700 -0.4888536320 0.6072443351
-0.0385651394 -0.4897606651 0.6065845186
-0.0387693324 -0.4906695833 0.6059233308
-0.0389739502 -0.4915803925 0.6052607674
-0.0391789942 -0.4924930986 0.6045968241
-0.0393844656 -0.4934077075 0.6039314966
-0.0395903658 -0.4943242253 0.6032647806
-0.0353288558 -0.4735207928 0.6178404388
-0.0355259982 -0.4743964558 0.6172028735
-0.0357235432 -0.4752739071 0.6165640060
-0.0359214920 -0.4761531522 0.6159238325
-0.0361198460 -0.4770341967 0.6152823490
-0.0365177741 -0.4788017057 0.6139954355
-0.0367173508 -0.4796881814 0.6133499975
-0.0369173376 -0.4805764786 0.6127032332
-0.0371177358 -0.4814666030 0.6120551385
-0.0373185466 -0.4823585603 0.6114057094
-0.0375197713 -0.4832523560 0.6107549417
-0.0377214112 -0.4841479960 0.6101028312
-0.0379234676 -0.4850454858 0.6094493738
-0.0381259417 -0.4859448313 0.6087945654
-0.0383288349 -0.4868460382 0.6081384016
-0.0385321485 -0.4877491123 0.6074808784
-0.0387358838 -0.4886540594 0.6068219915
-0.0389400420 -0.4895608853 0.6061617366
-0.0391446246 -0.4904695959 0.6055001094
-0.0393496328 -0.4913801970 0.6048371058
-0.0395550679 -0.4922926947 0.6041727213
-0.0397609314 -0.4932070947 0.6035069517
-0.0358943994 -0.4742001404 0.6167874231
-0.0360923206 -0.4750773913 0.6161481314
-0.0362906464 -0.4759564356 0.6155075328
-0.0368880640 -0.4786043839 0.6135778553
-0.0370880208 -0.4794906571 0.6129319886
-0.0372883884 -0.4803787514 0.6122847949
-0.0374891682 -0.4812686724 0.6116362699
-0.0376903614 -0.4821604259 0.6109864095
-0.0378919693 -0.4830540175 0.6103352097
-0.0380939932 -0.4839494528 0.6096826662
-0.0382964343 -0.4848467376 0.6090287749
-0.0384992940 -0.4857458777 0.6083735316
-0.0387025736 -0.4866468787 0.6077169322
-0.0389062744 -0.4875497464 0.6070589723
-0.0391103976 -0.4884544868 0.6063996478
-0.0393149446 -0.4893611055 0.6057389545
-0.0395199168 -0.4902696085 0.6050768880
-0.0397253154 -0.4911800016 0.6044134441
-0.0399311417 -0.4920922908 0.6037486185
-0.0401373972 -0.4930064819 0.6030824068
-0.0360649074 -0.4731285622 0.6170103848
-0.0362628007 -0.4740038251 0.6163719727
-0.0364610980 -0.4748808755 0.6157322568
-0.0366598008 -0.4757597189 0.6150912331
-0.0370584275 -0.4775228067 0.6138052463
-0.0372583539 -0.4784070622 0.6131602750
-0.0374586907 -0.4792931328 0.6125139798
-0.0376594392 -0.4801810242 0.6118663566
-0.0378606006 -0.4810707419 0.6112174012
-0.0380621762 -0.4819622916 0.6105671096
-0.0382641673 -0.4828556789 0.6099154776
-0.0384665751 -0.4837509096 0.6092625011
-0.0386694011 -0.4846479894 0.6086081759
-0.0388726463 -0.4855469240 0.6079524978
-0.0390763123 -0.4864477191 0.6072954627
-0.0392804002 -0.4873503805 0.6066370662
-0.0394849114 -0.4882549141 0.6059773042
-0.0396898472 -0.4891613257 0.6053161725
-0.0398952090 -0.4900696211 0.6046536667
-0.0401009980 -0.4909798062 0.6039897825
-0.0403072155 -0.4918918868 0.6033245157
-0.0362350683 -0.4720591658 0.6172328925
-0.0364329333 -0.4729324469 0.6165953578
-0.0366312019 -0.4738075098 0.6159565223
-0.0368298755 -0.4746843597 0.6153163822
-0.0370289552 -0.4755630022 0.6146749334
-0.0374283381 -0.4773256871 0.6133880937
-0.0376286438 -0.4782097404 0.6127426948
-0.0378293606 -0.4790956085 0.6120959710
-0.0380304899 -0.4799832969 0.6114479183
-0.0382320329 -0.4808728113 0.6107985326
-0.0384339909 -0.4817641572 0.6101478097
-0.0386363652 -0.4826573404 0.6094957456
-0.0388391571 -0.4835523665 0.6088423361
-0.0390423678 -0.4844492412 0.6081875770
-0.0392459987 -0.4853479703 0.6075314641
-0.0394500510 -0.4862485595 0.6068739932
-0.0396545261 -0.4871510147 0.6062151601
-0.0398594252 -0.4880553415 0.6055549606
-0.0400647498 -0.4889615459 0.6048933904
-0.0402705012 -0.4898696337 0.6042304453
-0.0404766805 -0.4907796107 0.6035661209
-0.0366027195 -0.4718632501 0.6168182880
-0.0368009591 -0.4727363317 0.6161803307
-0.0369996031 -0.4736111945 0.6155410719
-0.0371986529 -0.4744878439 0.6149005076
-0.0377982487 -0.4771285674 0.6129709412
-0.0379989336 -0.4780124187 0.6123251146
-0.0382000306 -0.4788980842 0.6116779622
-0.0384015407 -0.4797855697 0.6110294800
-0.0386034653 -0.4806748807 0.6103796640
-0.0388058057 -0.4815660229 0.6097285099
-0.0390085632 -0.4824590018 0.6090760136
-0.0392117390 -0.4833538233 0.6084221711
-0.0394153345 -0.4842504930 0.6077669780
-0.0396193510 -0.4851490166 0.6071104303
-0.0398237897 -0.4860494000 0.6064525237
-0.0400286519 -0.4869516488 0.6057932540
-0.0402339391 -0.4878557689 0.6051326170
-0.0404396524 -0.4887617661 0.6044706084
-0.0406457933 -0.4896696463 0.6038072239
-0.0367721603 -0.4707962280 0.6170407648
-0.0369703706 -0.4716673345 0.6164036835
-0.0371689849 -0.4725402164 0.6157653037
-0.0373680044 -0.4734148791 0.6151256215
-0.0375674303 -0.4742913281 0.6144846330
