0.1390686479 -0.0933580617 1.1900247534
0.1384979930 -0.0934958440 1.1917810489
0.1379256511 -0.0936340336 1.1935425360
0.1309231997 -0.0953247466 1.2150938656
0.1303282301 -0.0954683996 1.2169249938
0.0822042744 -0.1070877304 1.3650353017
0.1538648957 -0.0905306771 1.1444865850
0.1533371089 -0.0906591666 1.1461109456
0.1528078219 -0.0907880213 1.1477399237
0.1522770281 -0.0909172428 1.1493735390
0.1517447212 -0.0910468327 1.1510118112
0.1512108947 -0.0911767926 1.1526547603
0.1384979930 -0.0942717431 1.1917810489
0.1379256511 -0.0944110795 1.1935425361
0.1373516149 -0.0945508284 1.1953092379
0.1309231997 -0.0961158234 1.2150938657
0.1303282301 -0.0962606685 1.2169249938
0.0851830805 -0.1072512361 1.3558674790
0.0844421365 -0.1074316187 1.3581478704
0.0836986959 -0.1076126090 1.3604359453
0.0829527461 -0.1077942101 1.3627317428
0.0822042744 -0.1079764252 1.3650353018
0.0814532679 -0.1081592574 1.3673466619
0.1528078219 -0.0915352478 1.1477399238
0.1522770281 -0.0916655329 1.1493735390
0.1517447212 -0.0917961894 1.1510118113
0.1512108947 -0.0919272188 1.1526547604
0.1506755420 -0.0920586229 1.1543024066
0.1384979930 -0.0950476423 1.1917810490
0.1379256511 -0.0951881254 1.1935425361
0.1373516149 -0.0953290245 1.1953092380
0.1309231997 -0.0969069001 1.2150938658
0.1303282301 -0.0970529373 1.2169249939
0.0866575292 -0.1077720541 1.3513295926
0.0859215406 -0.1079527049 1.3535947326
0.0851830806 -0.1081339624 1.3558674791
0.0844421365 -0.1083158295 1.3581478705
0.0836986959 -0.1084983095 1.3604359454
0.0829527461 -0.1086814053 1.3627317429
0.0822042744 -0.1088651201 1.3650353019
0.0814532680 -0.1090494571 1.3673466620
0.0806997139 -0.1092344194 1.3696658629
0.1517447212 -0.0925455460 1.1510118113
0.1512108947 -0.0926776451 1.1526547605
0.1506755420 -0.0928101219 1.1543024066
0.1501386566 -0.0929429779 1.1559547699
0.1496002320 -0.0930762149 1.1576118706
0.1384979930 -0.0958235414 1.1917810491
0.1379256512 -0.0959651714 1.1935425362
0.1373516149 -0.0961072206 1.1953092381
0.1367758768 -0.0962496911 1.1970811780
0.1315163815 -0.0975511899 1.2132682401
0.1309231997 -0.0976979768 1.2150938659
0.1303282302 -0.0978452062 1.2169249940
0.0881221413 -0.1082893975 1.3468219803
0.0873910587 -0.1084703090 1.3490720212
0.0866575292 -0.1086518260 1.3513295928
0.0859215406 -0.1088339515 1.3535947327
0.0851830806 -0.1090166886 1.3558674792
0.0844421365 -0.1092000404 1.3581478706
0.0836986959 -0.1093840099 1.3604359456
0.0829527461 -0.1095686004 1.3627317430
0.0822042744 -0.1097538150 1.3650353020
0.0814532680 -0.1099396568 1.3673466621
0.1512108947 -0.0934280714 1.1526547606
0.1506755420 -0.0935616209 1.1543024067
0.1501386567 -0.0936955526 1.1559547700
0.1496002320 -0.0938298684 1.1576118707
0.1490602614 -0.0939645699 1.1592737293
0.1379256512 -0.0967422173 1.1935425363
0.1373516149 -0.0968854168 1.1953092382
0.1367758768 -0.0970290408 1.1970811780
0.1315163815 -0.0983410781 1.2132682402
0.1309231998 -0.0984890536 1.2150938660
0.1303282302 -0.0986374751 1.2169249941
0.0895770149 -0.1088033010 1.3423443399
0.0888507893 -0.1089844657 1.3445794323
0.0881221413 -0.1091662347 1.3468219804
0.0873910587 -0.1093486111 1.3490720213
0.0866575292 -0.1095315979 1.3513295929
0.0859215407 -0.1097151981 1.3535947328
0.0851830806 -0.1098994148 1.3558674793
0.0844421365 -0.1100842512 1.3581478707
0.0836986959 -0.1102697104 1.3604359457
0.0829527461 -0.1104557956 1.3627317431
0.0822042744 -0.1106425098 1.3650353021
0.0814532680 -0.1108298564 1.3673466622
0.1506755420 -0.0943131198 1.1543024068
0.1501386567 -0.0944481274 1.1559547701
0.1496002320 -0.0945835220 1.1576118708
0.1490602614 -0.0947193054 1.1592737294
0.1485187383 -0.0948554791 1.1609403663
0.1379256512 -0.0975192632 1.1935425364
0.1373516149 -0.0976636129 1.1953092383
0.1367758768 -0.0978083905 1.1970811781
0.1315163815 -0.0991309663 1.2132682403
0.1309231998 -0.0992801303 1.2150938661
0.1303282302 -0.0994297440 1.2169249942
0.0903008300 -0.1094952094 1.3401166660
0.0895770149 -0.1096772231 1.3423443400
0.0888507893 -0.1098598430 1.3445794325
0.0881221413 -0.1100430720 1.3468219805
0.0873910587 -0.1102269132 1.3490720215
0.0866575292 -0.1104113697 1.3513295930
0.0859215407 -0.1105964446 1.3535947329
0.0851830806 -0.1107821411 1.3558674794
0.0844421365 -0.1109684621 1.3581478708
0.0836986959 -0.1111554109 1.3604359458
0.0829527461 -0.1113429907 1.3627317432
0.0822042744 -0.1115312047 1.3650353023
0.1496002320 -0.0953371756 1.1576118709
0.1490602614 -0.0954740409 1.1592737295
0.1485187383 -0.0956112997 1.1609403664
0.1479756558 -0.0957489538 1.1626118023
0.1474310073 -0.0958870048 1.1642880580
0.1373516150 -0.0984418090 1.1953092384
0.1367758768 -0.0985877403 1.1970811782
0.1361984292 -0.0987341048 1.1988583793
0.1315163815 -0.0999208544 1.2132682404
0.1309231998 -0.1000712071 1.2150938662
0.1303282302 -0.1002220129 1.2169249943
0.0903008300 -0.1103676812 1.3401166661
0.0895770149 -0.1105511452 1.3423443401
0.0888507893 -0.1107352202 1.3445794326
0.0881221413 -0.1109199092 1.3468219806
0.0873910587 -0.1111052153 1.3490720216
0.0866575292 -0.1112911416 1.3513295931
0.0859215407 -0.1114776912 1.3535947330
0.0851830806 -0.1116648673 1.3558674795
0.0844421365 -0.1118526730 1.3581478709
0.0836986959 -0.1120411114 1.3604359459
0.0829527461 -0.1122301859 1.3627317433
0.0822042744 -0.1124198996 1.3650353024
0.1490602614 -0.0962287764 1.1592737295
0.1485187383 -0.0963671203 1.1609403665
0.1479756558 -0.0965058625 1.1626118024
0.1474310074 -0.0966450048 1.1642880581
0.1468847861 -0.0967845490 1.1659691544
0.1373516150 -0.0992200051 1.1953092385
0.1367758768 -0.0993670900 1.1970811783
0.1361984292 -0.0995146116 1.1988583794
0.1315163815 -0.1007107426 1.2132682405
0.1309231998 -0.1008622838 1.2150938663
0.1303282302 -0.1010142818 1.2169249944
0.0910222468 -0.1110558513 1.3378963738
0.0903008300 -0.1112401530 1.3401166662
0.0895770149 -0.1114250673 1.3423443402
0.0888507893 -0.1116105974 1.3445794327
0.0881221413 -0.1117967464 1.3468219807
0.0873910587 -0.1119835174 1.3490720217
0.0866575293 -0.1121709135 1.3513295932
0.0859215407 -0.1123589378 1.3535947331
0.0851830806 -0.1125475935 1.3558674796
0.0844421365 -0.1127368838 1.3581478710
0.0836986959 -0.1129268119 1.3604359460
0.0829527461 -0.1131173810 1.3627317434
0.0822042744 -0.1133085944 1.3650353025
0.0814532680 -0.1135004554 1.3673466626
0.1479756559 -0.0972627712 1.1626118025
0.1474310074 -0.0974030049 1.1642880582
0.1468847861 -0.0975436435 1.1659691545
0.1463369851 -0.0976846888 1.1676551125
0.1457875977 -0.0978261426 1.1693459532
0.1367758768 -0.1001464397 1.1970811784
0.1361984292 -0.1002951183 1.1988583795
0.1356192644 -0.1004442391 1.2006408654
0.1315163815 -0.1015006308 1.2132682406
0.1309231998 -0.1016533606 1.2150938663
0.0903008301 -0.1121126248 1.3401166663
0.0895770149 -0.1122989894 1.3423443403
0.0888507893 -0.1124859747 1.3445794328
0.0881221413 -0.1126735837 1.3468219808
0.0873910587 -0.1128618195 1.3490720218
0.0866575293 -0.1130506854 1.3513295933
0.0859215407 -0.1132401844 1.3535947332
0.0851830806 -0.1134303198 1.3558674797
0.0844421365 -0.1136210947 1.3581478711
0.0836986959 -0.1138125124 1.3604359461
0.0829527461 -0.1140045762 1.3627317435
0.0822042744 -0.1141972893 1.3650353026
0.0814532680 -0.1143906551 1.3673466627
0.1474310074 -0.0981610049 1.1642880583
0.1468847861 -0.0983027380 1.1659691546
0.1463369851 -0.0984448809 1.1676551125
0.1457875977 -0.0985874355 1.1693459533
0.1452366168 -0.0987304036 1.1710416980
0.1367758768 -0.1009257895 1.1970811785
0.1361984292 -0.1010756251 1.1988583796
0.1356192644 -0.1012259063 1.2006408655
0.1315163816 -0.1022905190 1.2132682407
0.1309231998 -0.1024444373 1.2150938664
0.0903008301 -0.1129850965 1.3401166664
0.0895770149 -0.1131729115 1.3423443404
0.0888507893 -0.1133613519 1.3445794329
0.0881221413 -0.1135504209 1.3468219809
0.0873910587 -0.1137401216 1.3490720219
0.0866575293 -0.1139304573 1.3513295934
0.0859215407 -0.1141214310 1.3535947334
0.0851830806 -0.1143130460 1.3558674798
0.0844421365 -0.1145053056 1.3581478713
0.0836986959 -0.1146982129 1.3604359462
0.0829527461 -0.1148917714 1.3627317437
0.0822042744 -0.1150859842 1.3650353027
0.1463369851 -0.0992050730 1.1676551126
0.1457875977 -0.0993487285 1.1693459533
0.1452366168 -0.0994928005 1.1710416981
0.1446840357 -0.0996372910 1.1727423681
0.1367758768 -0.1017051392 1.1970811786
0.1361984292 -0.1018561319 1.1988583797
0.1356192644 -0.1020075735 1.2006408656
0.1315163816 -0.1030804072 1.2132682408
0.1309231998 -0.1032355141 1.2150938665
0.0903008301 -0.1138575683 1.3401166665
0.0895770149 -0.1140468336 1.3423443405
0.0888507894 -0.1142367292 1.3445794330
0.0881221413 -0.1144272582 1.3468219810
0.0873910587 -0.1146184237 1.3490720220
0.0866575293 -0.1148102291 1.3513295935
0.0859215407 -0.1150026776 1.3535947335
0.0851830806 -0.1151957722 1.3558674800
0.0844421365 -0.1153895164 1.3581478714
0.0836986959 -0.1155839134 1.3604359463
0.0829527461 -0.1157789665 1.3627317438
0.0822042744 -0.1159746790 1.3650353028
0.0814532680 -0.1161710544 1.3673466629
0.0806997140 -0.1163680958 1.3696658638
0.1457875977 -0.1001100214 1.1693459534
0.1452366169 -0.1002551975 1.1710416981
0.1446840357 -0.1004007952 1.1727423682
0.1441298471 -0.1005468164 1.1744479851
0.1435740443 -0.1006932630 1.1761585705
0.1361984292 -0.1026366386 1.1988583798
0.1356192644 -0.1027892408 1.2006408657
0.1350383749 -0.1029422974 1.2024286599
0.1315163816 -0.1038702954 1.2132682409
0.1309231998 -0.1040265908 1.2150938666
0.0903008301 -0.1147300401 1.3401166666
0.0895770149 -0.1149207557 1.3423443406
0.0888507894 -0.1151121064 1.3445794331
0.0881221413 -0.1153040954 1.3468219811
0.0873910587 -0.1154967259 1.3490720221
0.0866575293 -0.1156900010 1.3513295936
0.0859215407 -0.1158839241 1.3535947336
0.0851830806 -0.1160784985 1.3558674801
0.0844421365 -0.1162737273 1.3581478715
0.0836986959 -0.1164696139 1.3604359465
0.0829527461 -0.1166661617 1.3627317439
0.0822042744 -0.1168633739 1.3650353029
0.0806997140 -0.1172598054 1.3696658639
0.1446840357 -0.1011642993 1.1727423683
0.1441298471 -0.1013114310 1.1744479852
0.1435740443 -0.1014589913 1.1761585706
0.1430166200 -0.1016069820 1.1778741462
0.1361984292 -0.1034171454 1.1988583799
0.1356192645 -0.1035709080 1.2006408657
0.1350383749 -0.1037251285 1.2024286600
0.1315163816 -0.1046601835 1.2132682410
0.1309231998 -0.1048176675 1.2150938667
0.0903008301 -0.1156025119 1.3401166667
0.0895770149 -0.1157946778 1.3423443408
0.0888507894 -0.1159874837 1.3445794332
0.0881221414 -0.1161809326 1.3468219813
0.0873910587 -0.1163750280 1.3490720222
0.0866575293 -0.1165697729 1.3513295938
0.0859215407 -0.1167651707 1.3535947337
0.0851830806 -0.1169612247 1.3558674802
0.0844421365 -0.1171579381 1.3581478716
0.0836986959 -0.1173553144 1.3604359466
0.0829527461 -0.1175533568 1.3627317440
0.0822042744 -0.1177520688 1.3650353031
0.0814532680 -0.1179514537 1.3673466632
0.1441298472 -0.1020760456 1.1744479853
0.1435740443 -0.1022247195 1.1761585707
0.1430166200 -0.1023738272 1.1778741463
0.1424575672 -0.1025233704 1.1795947340
0.1356192645 -0.1043525753 1.2006408658
0.1350383749 -0.1045079597 1.2024286601
0.1344557528 -0.1046638076 1.2042217864
0.1315163816 -0.1054500717 1.2132682410
0.1309231998 -0.1056087443 1.2150938668
0.0910222468 -0.1162820091 1.3378963744
0.0903008301 -0.1164749837 1.3401166669
0.0895770149 -0.1166685999 1.3423443409
0.0888507894 -0.1168628609 1.3445794333
0.0881221414 -0.1170577699 1.3468219814
0.0873910587 -0.1172533301 1.3490720223
0.0866575293 -0.1174495448 1.3513295939
0.0859215407 -0.1176464173 1.3535947338
0.0851830806 -0.1178439509 1.3558674803
0.0844421366 -0.1180421490 1.3581478717
0.0836986959 -0.1182410149 1.3604359467
0.0829527461 -0.1184405520 1.3627317441
0.0822042744 -0.1186407637 1.3650353032
0.0806997140 -0.1190432245 1.3696658641
0.1430166200 -0.1031406723 1.1778741464
0.1424575672 -0.1032913358 1.1795947341
0.1418968787 -0.1034424400 1.1813203558
0.1413345473 -0.1035939870 1.1830510338
0.1356192645 -0.1051342425 1.2006408659
0.1350383749 -0.1052907909 1.2024286602
0.1344557529 -0.1054478062 1.2042217865
0.1315163816 -0.1062399599 1.2132682411
0.1309231998 -0.1063998210 1.2150938669
0.0903008301 -0.1173474555 1.3401166670
0.0895770149 -0.1175425220 1.3423443410
0.0888507894 -0.1177382381 1.3445794334
0.0881221414 -0.1179346071 1.3468219815
0.0873910587 -0.1181316322 1.3490720225
0.0866575293 -0.1183293167 1.3513295940
0.0859215407 -0.1185276639 1.3535947339
0.0851830806 -0.1187266772 1.3558674804
0.0844421366 -0.1189263599 1.3581478718
0.0836986959 -0.1191267154 1.3604359468
0.0829527461 -0.1193277471 1.3627317442
0.0822042744 -0.1195294585 1.3650353033
0.0814532680 -0.1197318530 1.3673466634
0.0806997140 -0.1199349341 1.3696658642
0.1424575672 -0.1040593011 1.1795947342
0.1418968787 -0.1042115288 1.1813203559
0.1413345473 -0.1043642025 1.1830510339
0.1407705659 -0.1045173243 1.1847867903
0.1402049271 -0.1046708960 1.1865276475
0.1356192645 -0.1059159097 1.2006408660
0.1350383749 -0.1060736220 1.2024286603
0.1344557529 -0.1062318047 1.2042217866
0.1321077836 -0.1068692816 1.2114480931
0.1315163816 -0.1070298481 1.2132682412
0.1309231999 -0.1071908978 1.2150938670
0.0903008301 -0.1182199273 1.3401166671
0.0895770149 -0.1184164442 1.3423443411
0.0888507894 -0.1186136154 1.3445794336
0.0881221414 -0.1188114443 1.3468219816
0.0873910588 -0.1190099343 1.3490720226
0.0866575293 -0.1192090885 1.3513295941
0.0859215407 -0.1194089105 1.3535947340
0.0851830806 -0.1196094034 1.3558674805
0.0844421366 -0.1198105707 1.3581478719
0.0836986960 -0.1200124159 1.3604359469
0.0829527462 -0.1202149423 1.3627317443
0.0822042745 -0.1204181534 1.3650353034
0.1413345473 -0.1051344181 1.1830510339
0.1407705659 -0.1052886698 1.1847867904
0.1402049271 -0.1054433749 1.1865276476
0.1396376236 -0.1055985353 1.1882736282
0.1350383749 -0.1068564532 1.2024286603
0.1344557529 -0.1070158033 1.2042217867
0.1338713905 -0.1071756294 1.2060202691
0.1321077836 -0.1076579848 1.2114480932
0.1315163816 -0.1078197363 1.2132682413
0.1309231999 -0.1079819745 1.2150938671
0.0903008301 -0.1190923991 1.3401166672
0.0895770150 -0.1192903663 1.3423443412
0.0888507894 -0.1194889926 1.3445794337
0.0881221414 -0.1196882816 1.3468219817
0.0873910588 -0.1198882364 1.3490720227
0.0866575293 -0.1200888604 1.3513295942
0.0859215407 -0.1202901570 1.3535947341
0.0851830807 -0.1204921296 1.3558674806
0.0844421366 -0.1206947816 1.3581478720
0.0836986960 -0.1208981164 1.3604359470
0.0829527462 -0.1211021374 1.3627317444
0.0822042745 -0.1213068483 1.3650353035
0.0806997140 -0.1217183532 1.3696658645
0.1407705659 -0.1060600154 1.1847867904
0.1402049271 -0.1062158539 1.1865276477
0.1396376236 -0.1063721510 1.1882736283
0.1390686481 -0.1065289087 1.1900247549
0.1350383750 -0.1076392844 1.2024286604
0.1344557529 -0.1077998019 1.2042217868
0.1338713906 -0.1079607988 1.2060202691
0.1321077836 -0.1084466880 1.2114480933
0.1315163816 -0.1086096245 1.2132682414
0.1309231999 -0.1087730513 1.2150938672
0.1122584132 -0.1139153639 1.2725381746
0.1116058123 -0.1140951612 1.2745466737
0.1109511480 -0.1142755270 1.2765615231
0.1102944107 -0.1144564639 1.2785827529
0.0903008301 -0.1199648709 1.3401166673
0.0895770150 -0.1201642884 1.3423443413
0.0888507894 -0.1203643699 1.3445794338
0.0881221414 -0.1205651188 1.3468219818
0.0873910588 -0.1207665385 1.3490720228
0.0866575293 -0.1209686323 1.3513295943
0.0859215407 -0.1211714036 1.3535947343
0.0851830807 -0.1213748559 1.3558674807
0.0844421366 -0.1215789925 1.3581478722
0.0836986960 -0.1217838169 1.3604359471
0.0829527462 -0.1219893326 1.3627317446
0.0822042745 -0.1221955431 1.3650353036
0.0814532681 -0.1224024520 1.3673466637
0.0806997140 -0.1226100627 1.3696658646
0.1402049271 -0.1069883328 1.1865276478
0.1396376236 -0.1071457666 1.1882736284
0.1390686481 -0.1073036644 1.1900247550
0.1384979932 -0.1074620283 1.1917810504
0.1379256513 -0.1076208603 1.1935425375
0.1344557529 -0.1085838004 1.2042217869
0.1338713906 -0.1087459683 1.2060202692
0.1332852801 -0.1089086212 1.2078241316
0.1321077836 -0.1092353912 1.2114480934
0.1315163816 -0.1093995127 1.2132682415
0.1122584132 -0.1147438393 1.2725381747
0.1116058123 -0.1149249442 1.2745466738
0.1109511480 -0.1151066217 1.2765615232
0.1102944107 -0.1152888745 1.2785827530
0.1096355903 -0.1154717054 1.2806103935
0.1089746771 -0.1156551171 1.2826444753
0.0910222469 -0.1206371406 1.3378963750
0.0903008301 -0.1208373427 1.3401166674
0.0895770150 -0.1210382105 1.3423443414
0.0888507894 -0.1212397471 1.3445794339
0.0881221414 -0.1214419561 1.3468219819
0.0873910588 -0.1216448406 1.3490720229
0.0866575293 -0.1218484042 1.3513295944
0.0859215408 -0.1220526502 1.3535947344
0.0851830807 -0.1222575821 1.3558674809
0.0844421366 -0.1224632033 1.3581478723
0.0836986960 -0.1226695174 1.3604359472
0.0829527462 -0.1228765278 1.3627317447
0.0822042745 -0.1230842380 1.3650353037
0.0814532681 -0.1232926517 1.3673466638
0.0806997140 -0.1235017723 1.3696658647
0.1396376237 -0.1079193823 1.1882736285
0.1390686481 -0.1080784201 1.1900247551
0.1384979932 -0.1082379274 1.1917810505
0.1379256513 -0.1083979062 1.1935425376
0.1373516151 -0.1085583587 1.1953092395
0.1344557529 -0.1093677990 1.2042217870
0.1338713906 -0.1095311377 1.2060202693
0.1332852802 -0.1096949651 1.2078241317
0.1321077836 -0.1100240944 1.2114480934
0.1315163817 -0.1101894008 1.2132682416
0.1109511480 -0.1159377165 1.2765615233
0.1102944107 -0.1161212852 1.2785827531
0.1096355903 -0.1163054361 1.2806103936
0.1089746771 -0.1164901721 1.2826444754
0.1083116610 -0.1166754958 1.2846850292
0.1076465319 -0.1168614102 1.2867320860
0.0903008301 -0.1217098145 1.3401166675
0.0895770150 -0.1219121326 1.3423443415
0.0888507894 -0.1221151244 1.3445794340
0.0881221414 -0.1223187933 1.3468219820
0.0873910588 -0.1225231427 1.3490720230
0.0866575293 -0.1227281761 1.3513295945
0.0859215408 -0.1229338968 1.3535947345
0.0851830807 -0.1231403083 1.3558674810
0.0844421366 -0.1233474142 1.3581478724
0.0836986960 -0.1235552179 1.3604359474
0.0829527462 -0.1237637229 1.3627317448
0.0822042745 -0.1239729329 1.3650353038
0.0814532681 -0.1241828513 1.3673466640
0.1384979932 -0.1090138266 1.1917810506
0.1379256513 -0.1091749522 1.1935425377
0.1373516151 -0.1093365548 1.1953092396
0.1367758769 -0.1094986365 1.1970811794
0.1344557529 -0.1101517976 1.2042217871
0.1338713906 -0.1103163072 1.2060202694
0.1332852802 -0.1104813089 1.2078241318
0.1321077836 -0.1108127976 1.2114480935
0.1315163817 -0.1109792890 1.2132682417
0.1096355903 -0.1171391669 1.2806103937
0.1089746771 -0.1173252271 1.2826444755
0.1083116610 -0.1175118793 1.2846850293
0.1076465319 -0.1176991264 1.2867320861
0.1069792798 -0.1178869711 1.2887856770
0.1063098945 -0.1180754164 1.2908458333
0.0910222469 -0.1223791932 1.3378963752
0.0903008301 -0.1225822863 1.3401166676
0.0895770150 -0.1227860547 1.3423443416
0.0888507894 -0.1229905016 1.3445794341
0.0881221414 -0.1231956305 1.3468219821
0.0873910588 -0.1234014448 1.3490720231
0.0866575293 -0.1236079479 1.3513295946
0.0859215408 -0.1238151434 1.3535947346
0.0851830807 -0.1240230346 1.3558674811
0.0844421366 -0.1242316251 1.3581478725
0.0836986960 -0.1244409184 1.3604359475
0.0829527462 -0.1246509181 1.3627317449
0.0822042745 -0.1248616277 1.3650353040
0.0814532681 -0.1250730510 1.3673466641
0.1373516151 -0.1101147509 1.1953092397
0.1367758770 -0.1102779863 1.1970811795
0.1361984293 -0.1104417063 1.1988583806
0.1356192645 -0.1106059132 1.2006408665
0.1338713906 -0.1111014766 1.2060202695
0.1332852802 -0.1112676528 1.2078241319
0.1326974138 -0.1114343267 1.2096333985
0.1321077836 -0.1116015008 1.2114480936
0.1315163817 -0.1117691772 1.2132682418
0.1083116610 -0.1183482628 1.2846850294
0.1076465320 -0.1185368426 1.2867320862
0.1069792798 -0.1187260243 1.2887856771
0.1063098945 -0.1189158108 1.2908458334
0.1056383656 -0.1191062051 1.2929125867
0.1049646830 -0.1192972100 1.2949859686
0.0910222469 -0.1232502195 1.3378963753
0.0903008301 -0.1234547581 1.3401166677
0.0895770150 -0.1236599768 1.3423443417
0.0888507894 -0.1238658789 1.3445794342
0.0881221414 -0.1240724678 1.3468219823
0.0873910588 -0.1242797469 1.3490720232
0.0866575294 -0.1244877198 1.3513295948
0.0859215408 -0.1246963899 1.3535947347
0.0851830807 -0.1249057608 1.3558674812
0.0844421366 -0.1251158359 1.3581478726
0.0836986960 -0.1253266189 1.3604359476
0.0829527462 -0.1255381132 1.3627317450
0.0822042745 -0.1257503226 1.3650353041
0.0814532681 -0.1259632506 1.3673466642
0.1367758770 -0.1110573360 1.1970811796
0.1361984293 -0.1112222131 1.1988583807
0.1356192646 -0.1113875804 1.2006408666
0.1350383750 -0.1115534402 1.2024286609
0.1338713906 -0.1118866461 1.2060202696
0.1332852802 -0.1120539966 1.2078241320
0.1326974138 -0.1122218485 1.2096333986
0.1321077837 -0.1123902040 1.2114480937
0.1315163817 -0.1125590654 1.2132682418
0.1069792798 -0.1195650775 1.2887856772
0.1063098945 -0.1197562053 1.2908458335
0.1056383656 -0.1199479451 1.2929125868
0.1049646830 -0.1201402998 1.2949859687
0.1042888362 -0.1203332725 1.2970660114
0.1036108148 -0.1205268662 1.2991527468
0.0910222469 -0.1241212458 1.3378963754
0.0903008302 -0.1243272299 1.3401166678
0.0895770150 -0.1245338989 1.3423443419
0.0888507894 -0.1247412561 1.3445794343
0.0881221414 -0.1249493050 1.3468219824
0.0873910588 -0.1251580490 1.3490720233
0.0866575294 -0.1253674917 1.3513295949
0.0859215408 -0.1255776365 1.3535947348
0.0851830807 -0.1257884870 1.3558674813
0.0844421366 -0.1260000468 1.3581478727
0.0836986960 -0.1262123194 1.3604359477
0.0829527462 -0.1264253084 1.3627317451
0.0822042745 -0.1266390175 1.3650353042
0.1361984293 -0.1120027198 1.1988583808
0.1356192646 -0.1121692476 1.2006408667
0.1350383750 -0.1123362714 1.2024286610
0.1344557529 -0.1125037933 1.2042217873
0.1338713906 -0.1126718156 1.2060202697
0.1332852802 -0.1128403405 1.2078241321
0.1326974139 -0.1130093703 1.2096333987
0.1321077837 -0.1131789072 1.2114480938
0.1315163817 -0.1133489536 1.2132682419
0.1056383657 -0.1207896850 1.2929125869
0.1049646830 -0.1209833897 1.2949859688
0.1042888362 -0.1211777166 1.2970660115
0.1036108148 -0.1213726687 1.2991527469
0.1029306082 -0.1215682492 1.3012462075
0.0910222469 -0.1249922721 1.3378963755
0.0903008302 -0.1251997017 1.3401166679
0.0895770150 -0.1254078210 1.3423443420
0.0888507894 -0.1256166334 1.3445794344
0.0881221414 -0.1258261422 1.3468219825
0.0873910588 -0.1260363511 1.3490720234
0.0866575294 -0.1262472636 1.3513295950
0.0859215408 -0.1264588831 1.3535947349
0.0851830807 -0.1266712133 1.3558674814
0.0844421366 -0.1268842576 1.3581478728
0.0836986960 -0.1270980199 1.3604359478
0.0829527462 -0.1273125035 1.3627317452
0.0822042745 -0.1275277123 1.3650353043
0.0814532681 -0.1277436500 1.3673466644
0.1350383750 -0.1131191026 1.2024286610
0.1344557530 -0.1132877918 1.2042217874
0.1338713906 -0.1134569850 1.2060202698
0.1332852802 -0.1136266843 1.2078241322
0.1326974139 -0.1137968920 1.2096333988
0.1321077837 -0.1139676104 1.2114480939
0.1315163817 -0.1141388418 1.2132682420
0.0910222469 -0.1258632984 1.3378963756
0.0903008302 -0.1260721735 1.3401166681
0.0895770150 -0.1262817431 1.3423443421
0.0888507895 -0.1264920106 1.3445794345
0.0881221414 -0.1267029795 1.3468219826
0.0873910588 -0.1269146533 1.3490720236
0.0866575294 -0.1271270355 1.3513295951
0.0859215408 -0.1273401297 1.3535947350
0.0851830807 -0.1275539395 1.3558674815
0.0844421366 -0.1277684685 1.3581478729
0.0836986960 -0.1279837204 1.3604359479
0.0829527462 -0.1281996987 1.3627317454
0.0822042745 -0.1284164072 1.3650353044
0.0806997141 -0.1288520297 1.3696658654
0.1344557530 -0.1140717904 1.2042217875
0.1338713906 -0.1142421545 1.2060202699
0.1332852802 -0.1144130282 1.2078241322
0.1326974139 -0.1145844138 1.2096333988
0.1321077837 -0.1147563136 1.2114480940
0.1315163817 -0.1149287300 1.2132682421
0.0910222469 -0.1267343247 1.3378963757
0.0903008302 -0.1269446453 1.3401166682
0.0895770150 -0.1271556652 1.3423443422
0.0888507895 -0.1273673879 1.3445794347
0.0881221414 -0.1275798167 1.3468219827
0.0873910588 -0.1277929554 1.3490720237
0.0866575294 -0.1280068074 1.3513295952
0.0859215408 -0.1282213763 1.3535947351
0.0851830807 -0.1284366657 1.3558674816
0.0844421366 -0.1286526794 1.3581478730
0.0836986960 -0.1288694209 1.3604359480
0.0829527462 -0.1290868939 1.3627317455
0.1332852802 -0.1151993720 1.2078241323
0.1326974139 -0.1153719355 1.2096333989
0.1321077837 -0.1155450168 1.2114480941
0.1315163817 -0.1157186182 1.2132682422
0.0910222469 -0.1276053509 1.3378963758
0.0903008302 -0.1278171171 1.3401166683
0.0895770150 -0.1280295873 1.3423443423
0.0888507895 -0.1282427651 1.3445794348
0.0881221415 -0.1284566540 1.3468219828
0.0873910588 -0.1286712575 1.3490720238
0.0866575294 -0.1288865792 1.3513295953
0.0859215408 -0.1291026229 1.3535947353
0.0851830807 -0.1293193920 1.3558674817
0.1332852802 -0.1159857158 1.2078241324
0.1326974139 -0.1161594573 1.2096333990
0.1321077837 -0.1163337200 1.2114480942
0.1315163817 -0.1165085063 1.2132682423
0.0917412771 -0.1282638709 1.3356834284
0.0910222469 -0.1284763772 1.3378963759
0.0903008302 -0.1286895889 1.3401166684
0.0895770150 -0.1289035094 1.3423443424
0.0888507895 -0.1291181423 1.3445794349
0.0881221415 -0.1293334912 1.3468219829
0.1344557530 -0.1164237861 1.2042217878
0.1338713907 -0.1165976628 1.2060202701
0.1332852802 -0.1167720597 1.2078241325
0.1321077837 -0.1171224232 1.2114480942
0.1315163817 -0.1172983945 1.2132682424
0.1309232000 -0.1174748955 1.2150938681
0.1356192646 -0.1168592511 1.2006408672
0.1350383751 -0.1170332584 1.2024286615
0.1344557530 -0.1172077847 1.2042217878
0.1321077837 -0.1179111264 1.2114480943
0.1315163818 -0.1180882827 1.2132682425
0.1309232000 -0.1182659722 1.2150938682
0.1373516152 -0.1171185161 1.1953092405
0.1367758770 -0.1172921339 1.1970811803
0.1361984294 -0.1174662672 1.1988583814
0.1356192646 -0.1176409183 1.2006408673
0.1315163818 -0.1188781709 1.2132682426
0.1384979933 -0.1175487170 1.1917810515
0.1379256514 -0.1177224574 1.1935425387
0.1373516152 -0.1178967122 1.1953092405
0.1367758771 -0.1180714836 1.1970811804
0.1396376238 -0.1179763857 1.1882736296
0.1390686483 -0.1181502443 1.1900247562
0.1384979933 -0.1183246161 1.1917810516
0.1379256514 -0.1184995034 1.1935425387
-0.1766150449 -0.2146119071 2.1615992746
0.1407705661 -0.1184015446 1.1847867918
0.1402049273 -0.1185755170 1.1865276491
0.1396376238 -0.1187500014 1.1882736297
0.1390686483 -0.1189250001 1.1900247563
-0.1691744770 -0.2137307179 2.1386995612
-0.1710198002 -0.2142982802 2.1443788819
-0.1728749499 -0.2148688649 2.1500884459
-0.1747400050 -0.2154424961 2.1558284953
-0.1766150449 -0.2160191984 2.1615992749
-0.1785001501 -0.2165989964 2.1674010322
-0.1803954018 -0.2171819151 2.1732340172
0.1424575674 -0.1186506424 1.1795947358
0.1418968789 -0.1188242156 1.1813203575
0.1413345475 -0.1189982975 1.1830510355
0.1407705661 -0.1191728902 1.1847867919
0.1402049273 -0.1193479960 1.1865276491
-0.1655129999 -0.2139896108 2.1274306935
-0.1673389026 -0.2145548586 2.1330502443
-0.1691744770 -0.2151231004 2.1386995615
-0.1710198002 -0.2156943602 2.1443788822
-0.1728749499 -0.2162686621 2.1500884462
-0.1747400050 -0.2168460303 2.1558284956
-0.1766150449 -0.2174264896 2.1615992752
-0.1785001501 -0.2180100648 2.1674010325
-0.1803954018 -0.2185967811 2.1732340175
-0.1823008822 -0.2191866638 2.1790984832
-0.1861428620 -0.2203760320 2.1909228812
0.1435740445 -0.1190707409 1.1761585725
0.1430166202 -0.1192444206 1.1778741482
0.1424575674 -0.1194186077 1.1795947358
0.1418968789 -0.1195933044 1.1813203576
0.1413345475 -0.1197685130 1.1830510356
-0.1636966927 -0.2148087402 2.1218406747
-0.1655129999 -0.2153746568 2.1274306938
-0.1673389026 -0.2159435632 2.1330502446
-0.1691744771 -0.2165154830 2.1386995618
-0.1710198002 -0.2170904403 2.1443788825
-0.1728749500 -0.2176684593 2.1500884465
-0.1747400050 -0.2182495645 2.1558284958
-0.1766150450 -0.2188337808 2.1615992754
-0.1785001502 -0.2194211332 2.1674010327
-0.1803954019 -0.2200116470 2.1732340178
-0.1823008822 -0.2206053478 2.1790984835
-0.1842166743 -0.2212022614 2.1849946853
-0.1861428620 -0.2218024141 2.1909228815
0.1441298474 -0.1196621810 1.1744479872
0.1435740445 -0.1198364692 1.1761585726
0.1430166202 -0.1200112658 1.1778741482
0.1424575674 -0.1201865730 1.1795947359
-0.1636966927 -0.2161901469 2.1218406750
-0.1655130000 -0.2167597029 2.1274306940
-0.1673389027 -0.2173322678 2.1330502448
-0.1691744771 -0.2179078655 2.1386995620
-0.1710198002 -0.2184865203 2.1443788828
-0.1728749500 -0.2190682565 2.1500884467
-0.1747400051 -0.2196530987 2.1558284961
-0.1766150450 -0.2202410720 2.1615992757
-0.1785001502 -0.2208322016 2.1674010330
-0.1803954019 -0.2214265129 2.1732340181
-0.1823008823 -0.2220240317 2.1790984838
-0.1842166743 -0.2226247840 2.1849946855
-0.1861428620 -0.2232287962 2.1909228818
-0.1880795302 -0.2238360949 2.1968833336
-0.1900267646 -0.2244467068 2.2028763049
0.1446840359 -0.1202519032 1.1727423704
0.1441298474 -0.1204267956 1.1744479873
0.1435740445 -0.1206021974 1.1761585727
-0.1673389027 -0.2187209724 2.1330502451
-0.1691744771 -0.2193002481 2.1386995623
-0.1710198002 -0.2198826003 2.1443788831
-0.1728749500 -0.2204680536 2.1500884470
-0.1747400051 -0.2210566329 2.1558284964
-0.1766150450 -0.2216483633 2.1615992760
-0.1785001502 -0.2222432700 2.1674010333
-0.1803954019 -0.2228413788 2.1732340184
-0.1823008823 -0.2234427156 2.1790984840
-0.1842166744 -0.2240473067 2.1849946858
-0.1861428621 -0.2246551783 2.1909228821
-0.1880795302 -0.2252663575 2.1968833339
-0.1900267646 -0.2258808711 2.2028763052
-0.1919846520 -0.2264987467 2.2089020629
-0.1939532799 -0.2271200118 2.2149608769
-0.1959327371 -0.2277446944 2.2210530197
0.1457875980 -0.1206649310 1.1693459557
0.1452366171 -0.1208399150 1.1710417004
0.1446840359 -0.1210154074 1.1727423705
-0.1728749500 -0.2218678508 2.1500884473
-0.1747400051 -0.2224601671 2.1558284967
-0.1766150450 -0.2230556545 2.1615992763
-0.1785001502 -0.2236543384 2.1674010336
-0.1803954019 -0.2242562448 2.1732340187
-0.1823008823 -0.2248613996 2.1790984843
-0.1842166744 -0.2254698293 2.1849946861
-0.1861428621 -0.2260815605 2.1909228824
-0.1880795302 -0.2266966201 2.1968833342
-0.1900267646 -0.2273150354 2.2028763055
-0.1919846520 -0.2279368340 2.2089020632
-0.1939532799 -0.2285620436 2.2149608771
-0.1959327371 -0.2291906925 2.2210530200
-0.1979231131 -0.2298228090 2.2271787676
0.1468847864 -0.1210755733 1.1659691571
0.1463369854 -0.1212506451 1.1676551150
0.1457875980 -0.1214262239 1.1693459558
-0.1747400051 -0.2238637013 2.1558284970
-0.1766150451 -0.2244629457 2.1615992766
-0.1785001503 -0.2250654068 2.1674010339
-0.1803954020 -0.2256711107 2.1732340190
-0.1823008823 -0.2262800835 2.1790984846
-0.1842166744 -0.2268923519 2.1849946864
-0.1861428621 -0.2275079426 2.1909228826
-0.1880795303 -0.2281268827 2.1968833344
-0.1900267647 -0.2287491997 2.2028763058
-0.1919846520 -0.2293749213 2.2089020635
-0.1939532800 -0.2300040755 2.2149608774
-0.1959327371 -0.2306366906 2.2210530203
-0.1979231132 -0.2312727952 2.2271787679
-0.1999244986 -0.2319124184 2.2333383991
-0.2019369851 -0.2325555893 2.2395321956
0.1479756562 -0.1214838507 1.1626118051
0.1474310077 -0.1216590064 1.1642880608
0.1468847864 -0.1218346678 1.1659691571
-0.1803954020 -0.2270859766 2.1732340192
-0.1823008824 -0.2276987675 2.1790984849
-0.1842166744 -0.2283148745 2.1849946867
-0.1861428621 -0.2289343247 2.1909228829
-0.1880795303 -0.2295571453 2.1968833347
-0.1900267647 -0.2301833640 2.2028763061
-0.1919846520 -0.2308130086 2.2089020638
-0.1939532800 -0.2314461073 2.2149608777
-0.1959327372 -0.2320826887 2.2210530206
-0.1979231132 -0.2327227814 2.2271787682
-0.1999244986 -0.2333664148 2.2333383994
-0.2019369851 -0.2340136181 2.2395321959
-0.2039606652 -0.2346644213 2.2457604430
-0.2059956326 -0.2353188544 2.2520234288
-0.2080419821 -0.2359769478 2.2583214448
0.1490602618 -0.1218897837 1.1592737323
0.1485187386 -0.1220650193 1.1609403693
0.1479756562 -0.1222407595 1.1626118052
-0.1842166745 -0.2297373971 2.1849946870
-0.1861428621 -0.2303607068 2.1909228832
-0.1880795303 -0.2309874079 2.1968833350
-0.1900267647 -0.2316175283 2.2028763064
-0.1919846521 -0.2322510959 2.2089020641
-0.1939532800 -0.2328881392 2.2149608780
-0.1959327372 -0.2335286868 2.2210530209
-0.1979231132 -0.2341727677 2.2271787685
-0.1999244987 -0.2348204112 2.2333383997
-0.2019369851 -0.2354716469 2.2395321962
-0.2039606653 -0.2361265049 2.2457604433
-0.2059956327 -0.2367850155 2.2520234291
-0.2080419821 -0.2374472092 2.2583214451
-0.2100998092 -0.2381131171 2.2646547860
-0.2121692110 -0.2387827706 2.2710237497
0.1501386571 -0.1222933923 1.1559547731
0.1496002324 -0.1224687041 1.1576118738
0.1490602618 -0.1226445192 1.1592737324
-0.1880795303 -0.2324176706 2.1968833353
-0.1900267647 -0.2330516926 2.2028763067
-0.1919846521 -0.2336891832 2.2089020644
-0.1939532800 -0.2343301710 2.2149608783
-0.1959327372 -0.2349746849 2.2210530212
-0.1979231132 -0.2356227539 2.2271787688
-0.1999244987 -0.2362744075 2.2333384000
-0.2019369852 -0.2369296757 2.2395321965
-0.2039606653 -0.2375885886 2.2457604436
-0.2059956327 -0.2382511766 2.2520234294
-0.2080419821 -0.2389174706 2.2583214454
-0.2100998093 -0.2395875018 2.2646547863
-0.2121692110 -0.2402613017 2.2710237501
-0.2142502853 -0.2409389022 2.2774286382
0.1512108951 -0.1226946965 1.1526547637
0.1506755424 -0.1228700807 1.1543024099
0.1501386571 -0.1230459671 1.1559547732
-0.1919846521 -0.2351272706 2.2089020647
-0.1939532801 -0.2357722029 2.2149608786
-0.1959327373 -0.2364206830 2.2210530215
-0.1979231133 -0.2370727401 2.2271787691
-0.1999244987 -0.2377284039 2.2333384003
-0.2019369852 -0.2383877045 2.2395321969
-0.2039606653 -0.2390506723 2.2457604439
-0.2059956327 -0.2397173377 2.2520234297
-0.2080419821 -0.2403877320 2.2583214457
-0.2100998093 -0.2410618865 2.2646547866
-0.2121692111 -0.2417398328 2.2710237504
-0.2142502853 -0.2424216031 2.2774286385
-0.2163431312 -0.2431072299 2.2838697558
-0.2184478487 -0.2437967458 2.2903474104
-0.2205645393 -0.2444901842 2.2968619143
0.1517447217 -0.1232691690 1.1510118146
0.1512108951 -0.1234451228 1.1526547638
0.1506755424 -0.1236215797 1.1543024100
-0.1959327373 -0.2378666810 2.2210530218
-0.1979231133 -0.2385227263 2.2271787694
-0.1999244987 -0.2391824003 2.2333384006
-0.2019369852 -0.2398457334 2.2395321972
-0.2039606653 -0.2405127559 2.2457604442
-0.2059956328 -0.2411834989 2.2520234300
-0.2080419822 -0.2418579934 2.2583214460
-0.2100998093 -0.2425362711 2.2646547869
-0.2121692111 -0.2432183639 2.2710237507
-0.2142502854 -0.2439043041 2.2774286388
-0.2163431312 -0.2445941243 2.2838697561
-0.2184478487 -0.2452878575 2.2903474107
-0.2205645393 -0.2459855371 2.2968619146
-0.2226933054 -0.2466871969 2.3034135829
-0.2248342505 -0.2473928710 2.3100027347
0.1517447217 -0.1240185256 1.1510118147
0.1512108951 -0.1241955491 1.1526547639
0.1506755425 -0.1243730787 1.1543024100
-0.1999244988 -0.2406363967 2.2333384009
-0.2019369853 -0.2413037622 2.2395321975
-0.2039606654 -0.2419748396 2.2457604445
-0.2059956328 -0.2426496600 2.2520234304
-0.2080419822 -0.2433282548 2.2583214463
-0.2100998094 -0.2440106558 2.2646547872
-0.2121692111 -0.2446968950 2.2710237510
-0.2142502854 -0.2453870051 2.2774286391
-0.2163431312 -0.2460810187 2.2838697564
-0.2184478488 -0.2467789691 2.2903474111
-0.2205645394 -0.2474808899 2.2968619149
-0.2226933054 -0.2481868151 2.3034135832
-0.2248342506 -0.2488967791 2.3100027350
-0.2269874797 -0.2496108165 2.3166296929
-0.2291530987 -0.2503289626 2.3232947830
0.1522770286 -0.1245902961 1.1493735426
0.1517447217 -0.1247678823 1.1510118148
0.1512108951 -0.1249459754 1.1526547640
-0.2039606654 -0.2434369232 2.2457604449
-0.2059956328 -0.2441158211 2.2520234307
-0.2080419822 -0.2447985162 2.2583214466
-0.2100998094 -0.2454850404 2.2646547875
-0.2121692111 -0.2461754262 2.2710237513
-0.2142502854 -0.2468697060 2.2774286394
-0.2163431313 -0.2475679131 2.2838697567
-0.2184478488 -0.2482700807 2.2903474114
-0.2205645394 -0.2489762428 2.2968619152
-0.2226933054 -0.2496864334 2.3034135836
-0.2248342506 -0.2504006871 2.3100027354
-0.2269874797 -0.2511190390 2.3166296932
-0.2291530988 -0.2518415244 2.3232947834
0.1522770286 -0.1253385862 1.1493735427
0.1517447217 -0.1255172389 1.1510118149
0.1512108952 -0.1256964017 1.1526547641
-0.2100998094 -0.2469594251 2.2646547878
-0.2121692112 -0.2476539573 2.2710237516
-0.2142502854 -0.2483524070 2.2774286398
-0.2163431313 -0.2490548075 2.2838697570
-0.2184478488 -0.2497611924 2.2903474117
-0.2205645394 -0.2504715956 2.2968619155
-0.2226933055 -0.2511860516 2.3034135839
-0.2248342506 -0.2519045952 2.3100027357
-0.2269874797 -0.2526272615 2.3166296935
0.1522770286 -0.1260868763 1.1493735427
0.1517447217 -0.1262665956 1.1510118150
-0.2100998094 -0.2484338098 2.2646547881
-0.2142502855 -0.2498351080 2.2774286401
-0.2163431313 -0.2505417019 2.2838697573
-0.2184478489 -0.2512523040 2.2903474120
0.1528078224 -0.1266548943 1.1477399276
0.1522770286 -0.1268351663 1.1493735428
0.1517447217 -0.1270159522 1.1510118151
0.1528078224 -0.1274021209 1.1477399276
0.1522770286 -0.1275834564 1.1493735429
0.1533371095 -0.1279674661 1.1461109496
0.1528078224 -0.1281493474 1.1477399277
0.1522770286 -0.1283317465 1.1493735430
0.1533371095 -0.1287136320 1.1461109497
0.1528078224 -0.1288965739 1.1477399278
0.1522770287 -0.1290800366 1.1493735431
0.1538648963 -0.1292763172 1.1444865891
0.1533371095 -0.1294597980 1.1461109498
0.1528078224 -0.1296438004 1.1477399279
0.1538648963 -0.1300214257 1.1444865892
0.1533371095 -0.1302059640 1.1461109499
0.1528078224 -0.1303910270 1.1477399280
0.1543911891 -0.1305814636 1.1428668264
0.1538648963 -0.1307665341 1.1444865893
0.1533371095 -0.1309521300 1.1461109499
0.1528078224 -0.1311382535 1.1477399280
0.1522770287 -0.1313249068 1.1493735433
0.1554393183 -0.1309548434 1.1396410165
0.1549159944 -0.1311399185 1.1412516420
0.1543911891 -0.1313255175 1.1428668265
0.1538648963 -0.1315116426 1.1444865893
0.1533371095 -0.1316982960 1.1461109500
0.1528078225 -0.1318854800 1.1477399281
0.1522770287 -0.1320731969 1.1493735434
0.1554393183 -0.1316967972 1.1396410166
0.1549159944 -0.1318829209 1.1412516421
0.1543911891 -0.1320695714 1.1428668266
0.1538648963 -0.1322567511 1.1444865894
0.1533371095 -0.1324444620 1.1461109501
0.1528078225 -0.1326327065 1.1477399282
0.1522770287 -0.1328214870 1.1493735435
0.1554393183 -0.1324387510 1.1396410166
0.1549159944 -0.1326259233 1.1412516422
0.1543911891 -0.1328136254 1.1428668267
0.1538648963 -0.1330018595 1.1444865895
0.1533371095 -0.1331906280 1.1461109502
0.1528078225 -0.1333799331 1.1477399283
0.1559611673 -0.1329930144 1.1380349309
0.1554393184 -0.1331807048 1.1396410167
0.1549159944 -0.1333689256 1.1412516423
0.1543911892 -0.1335576793 1.1428668267
0.1538648963 -0.1337469680 1.1444865896
0.1533371096 -0.1339367940 1.1461109503
0.1528078225 -0.1341271596 1.1477399284
0.1559611673 -0.1337339225 1.1380349309
0.1554393184 -0.1339226585 1.1396410168
0.1549159944 -0.1341119280 1.1412516423
0.1543911892 -0.1343017332 1.1428668268
0.1538648963 -0.1344920765 1.1444865897
0.1533371096 -0.1346829600 1.1461109503
0.1564815474 -0.1342855832 1.1364333657
0.1559611673 -0.1344748307 1.1380349310
0.1554393184 -0.1346646123 1.1396410169
0.1549159944 -0.1348549304 1.1412516424
0.1543911892 -0.1350457872 1.1428668269
0.1538648963 -0.1352371849 1.1444865897
0.1533371096 -0.1354291260 1.1461109504
0.1564815474 -0.1350254487 1.1364333657
0.1559611673 -0.1352157389 1.1380349311
0.1554393184 -0.1354065661 1.1396410170
0.1549159944 -0.1355979328 1.1412516425
0.1543911892 -0.1357898411 1.1428668270
0.1538648964 -0.1359822934 1.1444865898
0.1570004649 -0.1355745191 1.1348363019
0.1564815474 -0.1357653142 1.1364333658
0.1559611673 -0.1359566471 1.1380349312
0.1554393184 -0.1361485199 1.1396410170
0.1549159945 -0.1363409352 1.1412516426
0.1543911892 -0.1365338950 1.1428668271
0.1538648964 -0.1367274019 1.1444865899
0.1570004650 -0.1363133449 1.1348363020
0.1564815475 -0.1365051797 1.1364333659
0.1559611673 -0.1366975552 1.1380349312
0.1554393184 -0.1368904737 1.1396410171
0.1549159945 -0.1370839375 1.1412516427
0.1543911892 -0.1372779490 1.1428668271
0.1570004650 -0.1370521706 1.1348363021
0.1564815475 -0.1372450452 1.1364333660
0.1559611673 -0.1374384634 1.1380349313
0.1554393184 -0.1376324275 1.1396410172
0.1549159945 -0.1378269399 1.1412516427
0.1543911892 -0.1380220029 1.1428668272
0.1575179260 -0.1375976263 1.1332437208
0.1570004650 -0.1377909963 1.1348363022
0.1564815475 -0.1379849107 1.1364333661
0.1559611674 -0.1381793716 1.1380349314
0.1554393184 -0.1383743813 1.1396410173
0.1549159945 -0.1385699423 1.1412516428
0.1543911892 -0.1387660568 1.1428668273
0.1580339368 -0.1381415531 1.1316556031
0.1575179260 -0.1383354151 1.1332437209
0.1570004650 -0.1385298221 1.1348363022
0.1564815475 -0.1387247761 1.1364333661
0.1559611674 -0.1389202797 1.1380349315
0.1554393184 -0.1391163351 1.1396410173
0.1549159945 -0.1393129447 1.1412516429
0.1543911892 -0.1395101108 1.1428668274
0.1580339368 -0.1388783081 1.1316556032
0.1575179261 -0.1390732040 1.1332437209
0.1570004650 -0.1392686478 1.1348363023
0.1564815475 -0.1394646416 1.1364333662
0.1559611674 -0.1396611879 1.1380349316
0.1554393185 -0.1398582889 1.1396410174
0.1549159945 -0.1400559471 1.1412516430
0.1580339368 -0.1396150630 1.1316556033
0.1575179261 -0.1398109929 1.1332437210
0.1570004650 -0.1400074735 1.1348363024
0.1564815475 -0.1402045071 1.1364333663
0.1559611674 -0.1404020961 1.1380349316
0.1554393185 -0.1406002427 1.1396410175
0.1549159945 -0.1407989495 1.1412516430
0.1585485033 -0.1401554054 1.1300719306
0.1580339368 -0.1403518180 1.1316556034
0.1575179261 -0.1405487818 1.1332437211
0.1570004650 -0.1407462992 1.1348363025
0.1564815475 -0.1409443726 1.1364333664
0.1559611674 -0.1411430042 1.1380349317
0.1554393185 -0.1413421965 1.1396410176
0.1585485033 -0.1408911294 1.1300719306
0.1580339368 -0.1410885730 1.1316556034
0.1575179261 -0.1412865707 1.1332437212
0.1570004650 -0.1414851250 1.1348363026
0.1564815475 -0.1416842381 1.1364333665
0.1559611674 -0.1418839124 1.1380349318
0.1554393185 -0.1420841503 1.1396410177
0.1590616316 -0.1414289334 1.1284926842
0.1585485033 -0.1416268533 1.1300719307
0.1580339368 -0.1418253279 1.1316556035
0.1575179261 -0.1420243596 1.1332437212
0.1570004650 -0.1422239507 1.1348363026
0.1564815475 -0.1424241036 1.1364333665
0.1559611674 -0.1426248206 1.1380349319
0.1590616316 -0.1421636292 1.1284926843
0.1585485033 -0.1423625772 1.1300719308
0.1580339368 -0.1425620829 1.1316556036
0.1575179261 -0.1427621485 1.1332437213
0.1570004651 -0.1429627764 1.1348363027
0.1564815476 -0.1431639690 1.1364333666
0.1559611674 -0.1433657287 1.1380349320
0.1595733277 -0.1426989069 1.1269178456
0.1590616316 -0.1428983249 1.1284926843
0.1585485033 -0.1430983011 1.1300719309
0.1580339368 -0.1432988378 1.1316556037
0.1575179261 -0.1434999374 1.1332437214
0.1570004651 -0.1437016021 1.1348363028
0.1564815476 -0.1439038345 1.1364333667
0.1595733278 -0.1434325774 1.1269178456
0.1590616316 -0.1436330207 1.1284926844
0.1585485033 -0.1438340251 1.1300719309
0.1580339369 -0.1440355928 1.1316556038
0.1575179261 -0.1442377263 1.1332437215
0.1570004651 -0.1444404279 1.1348363029
0.1564815476 -0.1446437000 1.1364333668
0.1600835977 -0.1439653407 1.1253473963
0.1595733278 -0.1441662478 1.1269178457
0.1590616316 -0.1443677165 1.1284926845
0.1585485033 -0.1445697490 1.1300719310
0.1580339369 -0.1447723478 1.1316556038
0.1575179261 -0.1449755152 1.1332437216
0.1570004651 -0.1451792536 1.1348363029
0.1564815476 -0.1453835655 1.1364333668
0.1600835977 -0.1446979888 1.1253473963
0.1595733278 -0.1448999183 1.1269178458
0.1590616316 -0.1451024122 1.1284926846
0.1585485034 -0.1453054729 1.1300719311
0.1580339369 -0.1455091027 1.1316556039
0.1575179262 -0.1457133041 1.1332437216
0.1570004651 -0.1459180793 1.1348363030
0.1610998829 -0.1450264252 1.1222195923
0.1605924475 -0.1452282498 1.1237813180
0.1600835977 -0.1454306368 1.1253473964
0.1595733278 -0.1456335888 1.1269178459
0.1590616317 -0.1458371080 1.1284926846
0.1585485034 -0.1460411968 1.1300719312
0.1580339369 -0.1462458577 1.1316556040
0.1575179262 -0.1464510929 1.1332437217
0.1570004651 -0.1466569051 1.1348363031
0.1616059099 -0.1455547586 1.1206622014
0.1610998829 -0.1457570369 1.1222195924
0.1605924475 -0.1459598782 1.1237813180
0.1600835977 -0.1461632849 1.1253473965
0.1595733278 -0.1463672593 1.1269178459
0.1590616317 -0.1465718038 1.1284926847
0.1585485034 -0.1467769208 1.1300719312
0.1580339369 -0.1469826126 1.1316556041
0.1575179262 -0.1471888818 1.1332437218
0.1621105344 -0.1460816276 1.1191091271
0.1616059099 -0.1462843564 1.1206622014
0.1610998829 -0.1464876486 1.1222195925
0.1605924475 -0.1466915067 1.1237813181
0.1600835978 -0.1468959330 1.1253473966
0.1595733278 -0.1471009298 1.1269178460
0.1590616317 -0.1473064995 1.1284926848
0.1585485034 -0.1475126447 1.1300719313
0.1580339369 -0.1477193676 1.1316556041
0.1575179262 -0.1479266707 1.1332437219
0.1631155988 -0.1464044239 1.1160158567
0.1626137621 -0.1466070383 1.1175603515
0.1621105344 -0.1468102143 1.1191091271
0.1616059099 -0.1470139542 1.1206622015
0.1610998829 -0.1472182603 1.1222195925
0.1605924475 -0.1474231352 1.1237813182
0.1600835978 -0.1476285810 1.1253473967
0.1595733278 -0.1478346003 1.1269178461
0.1590616317 -0.1480411953 1.1284926849
0.1585485034 -0.1482483686 1.1300719314
0.1580339369 -0.1484561226 1.1316556042
0.1575179262 -0.1486644596 1.1332437219
0.1631155989 -0.1471309967 1.1160158568
0.1626137621 -0.1473346167 1.1175603515
0.1621105344 -0.1475388010 1.1191091272
0.1616059099 -0.1477435520 1.1206622016
0.1610998829 -0.1479488721 1.1222195926
0.1605924475 -0.1481547636 1.1237813183
0.1600835978 -0.1483612291 1.1253473967
0.1595733278 -0.1485682707 1.1269178462
0.1590616317 -0.1487758911 1.1284926850
0.1585485034 -0.1489840925 1.1300719315
0.1580339369 -0.1491928775 1.1316556043
0.1636160504 -0.1476535089 1.1144756252
0.1631155989 -0.1478575696 1.1160158568
0.1626137621 -0.1480621950 1.1175603516
0.1621105344 -0.1482673876 1.1191091273
0.1616059099 -0.1484731498 1.1206622017
0.1610998829 -0.1486794838 1.1222195927
0.1605924475 -0.1488863921 1.1237813184
0.1600835978 -0.1490938771 1.1253473968
0.1595733278 -0.1493019412 1.1269178463
0.1590616317 -0.1495105869 1.1284926850
0.1585485034 -0.1497198165 1.1300719316
0.1641151226 -0.1481745809 1.1129396392
0.1636160505 -0.1483790790 1.1144756253
0.1631155989 -0.1485841424 1.1160158569
0.1626137621 -0.1487897734 1.1175603517
0.1621105344 -0.1489959743 1.1191091274
0.1616059100 -0.1492027476 1.1206622017
0.1610998829 -0.1494100955 1.1222195928
0.1605924475 -0.1496180206 1.1237813184
0.1600835978 -0.1498265252 1.1253473969
0.1595733278 -0.1500356117 1.1269178463
0.1590616317 -0.1502452826 1.1284926851
0.1585485034 -0.1504555404 1.1300719316
0.1646128209 -0.1486942185 1.1114078812
0.1641151226 -0.1488991510 1.1129396393
0.1636160505 -0.1491046491 1.1144756254
0.1631155989 -0.1493107152 1.1160158570
0.1626137621 -0.1495173517 1.1175603518
0.1621105344 -0.1497245610 1.1191091274
0.1616059100 -0.1499323454 1.1206622018
0.1610998830 -0.1501407072 1.1222195928
0.1605924475 -0.1503496491 1.1237813185
0.1600835978 -0.1505591732 1.1253473970
0.1595733279 -0.1507692822 1.1269178464
0.1590616317 -0.1509799784 1.1284926852
0.1585485034 -0.1511912643 1.1300719317
0.1646128210 -0.1494177913 1.1114078813
0.1641151226 -0.1496237210 1.1129396394
0.1621105344 -0.1504531477 1.1191091275
0.1616059100 -0.1506619432 1.1206622019
0.1610998830 -0.1508713190 1.1222195929
0.1605924475 -0.1510812775 1.1237813186
0.1600835978 -0.1512918213 1.1253473970
0.1595733279 -0.1515029527 1.1269178465
0.1590616317 -0.1517146742 1.1284926853
0.1621105344 -0.1511817344 1.1191091276
0.1616059100 -0.1513915410 1.1206622020
0.1610998830 -0.1516019307 1.1222195930
0.1605924476 -0.1518129060 1.1237813187
0.1600835978 -0.1520244693 1.1253473971
0.1595733279 -0.1522366232 1.1269178466
0.1590616318 -0.1524493699 1.1284926853
0.1626137622 -0.1517000868 1.1175603520
0.1621105344 -0.1519103210 1.1191091277
0.1616059100 -0.1521211388 1.1206622020
0.1610998830 -0.1523325424 1.1222195931
0.1605924476 -0.1525445345 1.1237813187
0.1600835978 -0.1527571174 1.1253473972
