0.2106749662 -1.0655241353 0.7001071317
0.2107546014 -1.0677140833 0.6992876590
0.2108344774 -1.0699106543 0.6984657080
0.2109145953 -1.0721138785 0.6976412673
0.2109949563 -1.0743237861 0.6968143258
0.2110755614 -1.0765404076 0.6959848719
0.2111564118 -1.0787637736 0.6951528943
0.2112375085 -1.0809939149 0.6943183813
0.2113188528 -1.0832308626 0.6934813214
0.2132607834 -1.1366334920 0.6734981994
0.2133484249 -1.1390436135 0.6725963383
0.2134363446 -1.1414613824 0.6716916156
0.2135245436 -1.1438868351 0.6707840177
0.2136130234 -1.1463200084 0.6698735307
0.2137908306 -1.1512096647 0.6680438343
0.2138801608 -1.1536662221 0.6671245970
0.2139697771 -1.1561306493 0.6662024149
0.2140596809 -1.1586029840 0.6652772739
0.2141498737 -1.1610832643 0.6643491595
0.2166010650 -1.2284904388 0.6391255739
0.2166996174 -1.2312006078 0.6381114359
0.2167985015 -1.2339198972 0.6370938850
0.2168977190 -1.2366483531 0.6360729041
0.2169972714 -1.2393860219 0.6350484757
0.2170971606 -1.2421329504 0.6340205823
0.2171973882 -1.2448891857 0.6329892064
0.2172979559 -1.2476547750 0.6319543302
0.2173988656 -1.2504297662 0.6309159359
0.2175001189 -1.2532142072 0.6298740055
0.2176017175 -1.2560081463 0.6288285209
0.2033515405 -0.8769073390 0.7700583095
0.2034112005 -0.8785647554 0.7694372829
0.2100519280 -1.0630510817 0.7003110649
0.2101305038 -1.0652339998 0.6994931351
0.2102093169 -1.0674235097 0.6986727353
0.2102883683 -1.0696196413 0.6978498544
0.2103676592 -1.0718224248 0.6970244811
0.2104471906 -1.0740318903 0.6961966040
0.2105269637 -1.0762480684 0.6953662118
0.2106069794 -1.0784709896 0.6945332930
0.2106872390 -1.0807006849 0.6936978359
0.2107677436 -1.0829371851 0.6928598291
0.2126896278 -1.1363291321 0.6728541005
0.2127763647 -1.1387387715 0.6719512192
0.2128633767 -1.1411560567 0.6710454730
0.2129506653 -1.1435810243 0.6701368483
0.2130382317 -1.1460137109 0.6692253313
0.2132142034 -1.1509023890 0.6673935650
0.2133026114 -1.1533584551 0.6664732879
0.2133913026 -1.1558223893 0.6655500625
0.2134802784 -1.1582942294 0.6646238748
0.2135695402 -1.1607740136 0.6636947106
0.2158013359 -1.2227756233 0.6404629791
0.2158982195 -1.2254671502 0.6394544758
0.2159954280 -1.2281677043 0.6384425900
0.2160929631 -1.2308773312 0.6374273047
0.2161908264 -1.2335960766 0.6364086027
0.2162890197 -1.2363239867 0.6353864667
0.2163875445 -1.2390611079 0.6343608794
0.2164864025 -1.2418074870 0.6333318232
0.2165855955 -1.2445631709 0.6322992805
0.2166851251 -1.2473282070 0.6312632336
0.2167849930 -1.2501026431 0.6302236646
0.2168852011 -1.2528865271 0.6291805555
0.2028777866 -0.8766548829 0.7695240516
0.2029368243 -0.8783119676 0.7689023232
0.2094307626 -1.0605854624 0.7005143850
0.2095082851 -1.0627613829 0.6996979925
0.2095860413 -1.0649438642 0.6988791384
0.2096640324 -1.0671329361 0.6980578116
0.2097422593 -1.0693286283 0.6972340008
0.2098207231 -1.0715309710 0.6964076948
0.2098994250 -1.0737399945 0.6955788823
0.2099783659 -1.0759557292 0.6947475517
0.2100575471 -1.0781782057 0.6939136917
0.2101369695 -1.0804074548 0.6930772906
0.2120329112 -1.1336232231 0.6731110487
0.2121184723 -1.1360247722 0.6722100017
0.2122043044 -1.1384339295 0.6713061001
0.2122904088 -1.1408507311 0.6703993305
0.2123767870 -1.1432752135 0.6694896790
0.2124634400 -1.1457074133 0.6685771320
0.2125503693 -1.1481473676 0.6676616755
0.2126375763 -1.1505951134 0.6667432958
0.2127250621 -1.1530506880 0.6658219787
0.2128128282 -1.1555141292 0.6648977101
0.2151021703 -1.2197719596 0.6407885518
0.2151977234 -1.2224539676 0.6397822783
0.2152935965 -1.2251449560 0.6387726353
0.2153897911 -1.2278449698 0.6377596061
0.2154863088 -1.2305540545 0.6367431735
0.2155831514 -1.2332722560 0.6357233204
0.2156803204 -1.2359996204 0.6347000294
0.2157778175 -1.2387361940 0.6336732832
0.2158756444 -1.2414820235 0.6326430641
0.2159738027 -1.2442371561 0.6316093547
0.2160722942 -1.2470016390 0.6305721370
0.2024040326 -0.8764024267 0.7689897938
0.2024624480 -0.8780591799 0.7683673636
0.2025210171 -0.8797202912 0.7677432961
0.2088879369 -1.0602961990 0.6999022341
0.2089646423 -1.0624716841 0.6990849201
0.2090415789 -1.0646537287 0.6982651417
0.2091187479 -1.0668423624 0.6974428878
0.2091961502 -1.0690376153 0.6966181472
0.2092737870 -1.0712395173 0.6957909086
0.2093516593 -1.0734480987 0.6949611605
0.2094297682 -1.0756633900 0.6941288916
0.2095081147 -1.0778854217 0.6932940904
0.2095867000 -1.0801142248 0.6924567452
0.2114626575 -1.1333193438 0.6724679669
0.2115473167 -1.1357204123 0.6715659029
0.2116322441 -1.1381290875 0.6706609810
0.2117174410 -1.1405454054 0.6697531879
0.2119746614 -1.1478405818 0.6670124429
0.2120609491 -1.1502878377 0.6660930265
0.2121475128 -1.1527429210 0.6651706695
0.2122343538 -1.1552058692 0.6642453577
0.2144053341 -1.2167783029 0.6411130399
0.2144995651 -1.2194508406 0.6401089868
0.2145941110 -1.2221323120 0.6391015774
0.2146889735 -1.2248227618 0.6380907949
0.2147841541 -1.2275222353 0.6370766222
0.2148796545 -1.2302307779 0.6360590423
0.2149754763 -1.2329484355 0.6350380381
0.2150716211 -1.2356752540 0.6340135921
0.2151680906 -1.2384112800 0.6329856869
0.2152648863 -1.2411565600 0.6319543051
0.2153620100 -1.2439111412 0.6309194288
0.2019302787 -0.8761499706 0.7684555359
0.2019880718 -0.8778063922 0.7678324039
0.2020460169 -0.8794671709 0.7672076328
0.2083451112 -1.0600069356 0.6992900831
0.2084209994 -1.0621819853 0.6984718477
0.2084971165 -1.0643635931 0.6976511450
0.2085734634 -1.0665517888 0.6968279641
0.2086500412 -1.0687466023 0.6960022936
0.2087268509 -1.0709480636 0.6951741223
0.2088038937 -1.0731562029 0.6943434388
0.2088811705 -1.0753710508 0.6935102315
0.2089586824 -1.0775926378 0.6926744891
0.2110601838 -1.1378242454 0.6700158620
0.2111444731 -1.1402400798 0.6691070453
0.2113138566 -1.1450948183 0.6672807333
0.2113989534 -1.1475337960 0.6663632102
0.2114843219 -1.1499805621 0.6654427573
0.2115699634 -1.1524351540 0.6645193604
0.2116558794 -1.1548976092 0.6635930053
0.2137108157 -1.2137946033 0.6414364486
0.2138037327 -1.2164577189 0.6404346068
0.2138969598 -1.2191297217 0.6394294217
0.2139904985 -1.2218106563 0.6384208765
0.2140843504 -1.2245005676 0.6374089544
0.2141785171 -1.2271995008 0.6363936383
0.2142730002 -1.2299075013 0.6353749112
0.2143678012 -1.2326246149 0.6343527557
0.2144629218 -1.2353508877 0.6333271547
0.2145583636 -1.2380863660 0.6322980907
0.2146541282 -1.2408310966 0.6312655460
0.2015136955 -0.8775536044 0.7672974443
0.2015710167 -0.8792140507 0.7666719696
0.2077274397 -1.0575495854 0.6994946304
0.2078022855 -1.0597176723 0.6986779322
0.2078773566 -1.0618922865 0.6978587752
0.2079526541 -1.0640734576 0.6970371484
0.2080281789 -1.0662612152 0.6962130404
0.2081039321 -1.0684555893 0.6953864401
0.2081799148 -1.0706566098 0.6945573361
0.2082561280 -1.0728643071 0.6937257170
0.2083325727 -1.0750787116 0.6928915714
0.2107390649 -1.1447885207 0.6666325339
0.2108232454 -1.1472270102 0.6657139776
0.2109076947 -1.1496732864 0.6647924880
0.2109924141 -1.1521273869 0.6638680512
0.2130186034 -1.2108208113 0.6417587835
0.2131102147 -1.2134745525 0.6407591438
0.2132021312 -1.2161371348 0.6397561738
0.2132943545 -1.2188086027 0.6387498567
0.2133868861 -1.2214890006 0.6377401757
0.2134797274 -1.2241783735 0.6367271139
0.2135728802 -1.2268767663 0.6357106544
0.2136663459 -1.2295842247 0.6346907800
0.2137601262 -1.2323007943 0.6336674734
0.2138542225 -1.2350265213 0.6326407174
0.2139486367 -1.2377614520 0.6316104944
0.2010393193 -0.8773008167 0.7667624846
0.2010960166 -0.8789609305 0.7661363063
0.2011528632 -0.8806254170 0.7655084787
0.2071116195 -1.0550996001 0.6996985646
0.2071854287 -1.0572607561 0.6988833982
0.2072594598 -1.0594284089 0.6980657813
0.2073337138 -1.0616025877 0.6972457028
0.2074081916 -1.0637833220 0.6964231517
0.2074828944 -1.0659706416 0.6955981167
0.2075578231 -1.0681645762 0.6947705865
0.2076329787 -1.0703651561 0.6939405498
0.2077083624 -1.0725724113 0.6931079952
0.2077839750 -1.0747863724 0.6922729113
0.2123286858 -1.2078568775 0.6420800498
0.2124189996 -1.2105012918 0.6410826032
0.2125096137 -1.2131545016 0.6400818391
0.2126005298 -1.2158165508 0.6390777408
0.2126917492 -1.2184874838 0.6380702916
0.2127832736 -1.2211673450 0.6370594748
0.2128751044 -1.2238561793 0.6360452734
0.2129672432 -1.2265540318 0.6350276705
0.2130596916 -1.2292609481 0.6340066488
0.2131524511 -1.2319769738 0.6329821911
0.2005649430 -0.8770480289 0.7662275250
0.2006210164 -0.8787078103 0.7656006431
0.2006772375 -0.8803719634 0.7649721100
0.2065704207 -1.0548112036 0.6990882484
0.2066434177 -1.0569719269 0.6982721660
0.2067166341 -1.0591391455 0.6974536304
0.2067900709 -1.0613128889 0.6966326304
0.2068637292 -1.0634931864 0.6958091550
0.2069376099 -1.0656800679 0.6949831929
0.2070117140 -1.0678735632 0.6941547329
0.2070860426 -1.0700737024 0.6933237635
0.2071605967 -1.0722805155 0.6924902735
0.2116410516 -1.2049027530 0.6424002528
0.2117300759 -1.2075378876 0.6414049903
0.2118193958 -1.2101817723 0.6404064230
0.2119090128 -1.2128344507 0.6394045343
0.2119989283 -1.2154959668 0.6383993077
0.2120891439 -1.2181663648 0.6373907265
0.2121796611 -1.2208456893 0.6363787739
0.2122704814 -1.2235339851 0.6353634330
0.2123616063 -1.2262312974 0.6343446866
0.2124530373 -1.2289376715 0.6333225176
0.2000905668 -0.8767952412 0.7656925653
0.2001460162 -0.8784546901 0.7650649798
0.2002016117 -0.8801185099 0.7644357413
0.2059572532 -1.0523689817 0.6992924855
0.2060292219 -1.0545228072 0.6984779321
0.2061014066 -1.0566830976 0.6976609338
0.2061738084 -1.0588498821 0.6968414794
0.2062464281 -1.0610231901 0.6960195580
0.2063192668 -1.0632030509 0.6951951583
0.2063923254 -1.0653894943 0.6943682692
0.2064656050 -1.0675825502 0.6935388793
0.2065391065 -1.0697822486 0.6927069773
0.2109556893 -1.2019583893 0.6427193979
0.2110434322 -1.2045842910 0.6417263104
0.2111314659 -1.2072188977 0.6407299308
0.2112197920 -1.2098622527 0.6397302427
0.2113084118 -1.2125143998 0.6387272295
0.2113973269 -1.2151753827 0.6377208747
0.2114865387 -1.2178452458 0.6367111615
0.2115760487 -1.2205240336 0.6356980731
0.2116658584 -1.2232117909 0.6346815925
0.2117559693 -1.2259085629 0.6336617026
0.2118463830 -1.2286143949 0.6326383864
0.1996710161 -0.8782015698 0.7645293166
0.1997259860 -0.8798650563 0.7638993725
0.2054168641 -1.0520810168 0.6986830825
0.2054880231 -1.0542344108 0.6978676159
0.2055593956 -1.0563942684 0.6970497016
0.2056309827 -1.0585606188 0.6962293285
0.2057027853 -1.0607334912 0.6954064856
0.2057748043 -1.0629129153 0.6945811617
0.2058470409 -1.0650989207 0.6937533455
0.2059194959 -1.0672915372 0.6929230257
0.2059921704 -1.0694907949 0.6920901910
0.2101864032 -1.1964156398 0.6440251483
0.2102725878 -1.1990237379 0.6430374903
0.2103590572 -1.2016404533 0.6420465689
0.2104458128 -1.2042658289 0.6410523680
0.2105328560 -1.2068999078 0.6400548713
0.2106201881 -1.2095427332 0.6390540624
0.2107078108 -1.2121943489 0.6380499247
0.2107957254 -1.2148547987 0.6370424416
0.2108839334 -1.2175241269 0.6360315964
0.2109724362 -1.2202023780 0.6350173722
0.2110612354 -1.2228895968 0.6339997520
0.1991960159 -0.8779484496 0.7639936533
0.1992503603 -0.8796116027 0.7633630038
0.1993048480 -0.8812791423 0.7627306910
0.2048063362 -1.0496465229 0.6988876198
0.2048764751 -1.0517930519 0.6980736795
0.2049468243 -1.0539460144 0.6972572996
0.2050173846 -1.0561054391 0.6964384694
0.2050881569 -1.0582713554 0.6956171776
0.2051591424 -1.0604437924 0.6947934132
0.2052303419 -1.0626227798 0.6939671650
0.2053017564 -1.0648083471 0.6931384217
0.2053733869 -1.0670005242 0.6923071721
0.2095917360 -1.1960987509 0.6433545350
0.2096769398 -1.1987063263 0.6423657709
0.2097624251 -1.2013225174 0.6413737399
0.2098481934 -1.2039473669 0.6403784256
0.2099342460 -1.2065809179 0.6393798119
0.2100205843 -1.2092232137 0.6383778822
0.2101072098 -1.2118742980 0.6373726200
0.2101941239 -1.2145342147 0.6363640086
0.2102813281 -1.2172030079 0.6353520314
0.2103688238 -1.2198807223 0.6343366713
0.1987210157 -0.8776953294 0.7634579900
0.1987747345 -0.8793581491 0.7628266351
0.1988285950 -0.8810253545 0.7621936150
0.2042667546 -1.0493589882 0.6982791273
0.2043360861 -1.0515050870 0.6974642764
0.2044056255 -1.0536576179 0.6966469834
0.2044753735 -1.0558166099 0.6958272371
0.2045453312 -1.0579820920 0.6950050267
0.2046154996 -1.0601540936 0.6941803408
0.2046858795 -1.0623326442 0.6933531683
0.2047564719 -1.0645177735 0.6925234980
0.2048272779 -1.0667095112 0.6916913186
0.2089131226 -1.1931833807 0.6436705374
0.2089970687 -1.1957818620 0.6426839218
0.2090812917 -1.1983889148 0.6416940516
0.2091657930 -1.2010045814 0.6407009109
0.2092505740 -1.2036289048 0.6397044832
0.2093356360 -1.2062619280 0.6387047524
0.2094209805 -1.2089036942 0.6377017019
0.2095066089 -1.2115542471 0.6366953152
0.2095925225 -1.2142136306 0.6356855756
0.2096787228 -1.2168818890 0.6346724663
0.1982991088 -0.8791046956 0.7622902664
0.1983523420 -0.8807715666 0.7616565390
0.2036588533 -1.0469321870 0.6984839621
0.2037271730 -1.0490714536 0.6976706348
0.2037956971 -1.0512171222 0.6968548734
0.2038644267 -1.0533692215 0.6960366671
0.2039333625 -1.0555277806 0.6952160049
0.2040025055 -1.0576928286 0.6943928757
0.2040718567 -1.0598643948 0.6935672684
0.2041414171 -1.0620425087 0.6927391716
0.2042111874 -1.0642271998 0.6919085743
0.2081543115 -1.1876966328 0.6449667525
0.2082367367 -1.1902775800 0.6439855026
0.2083194329 -1.1928670128 0.6430010266
0.2084024014 -1.1954649731 0.6420133085
0.2084856437 -1.1980715032 0.6410223323
0.2085691610 -1.2006866455 0.6400280818
0.2086529546 -1.2033104428 0.6390305408
0.2087370261 -1.2059429380 0.6380296929
0.2088213767 -1.2085841747 0.6370255216
0.2089060079 -1.2112341962 0.6360180104
0.2089909210 -1.2138930466 0.6350071425
0.1978234831 -0.8788512420 0.7617538977
0.1978760891 -0.8805177788 0.7611194629
0.1979288341 -0.8821887169 0.7604833527
0.2031200767 -1.0466450814 0.6978763774
0.2031875914 -1.0487839189 0.6970621422
0.2032553081 -1.0509291573 0.6962454704
0.2033232279 -1.0530808251 0.6954263509
0.2033913514 -1.0552389514 0.6946047727
0.2034596798 -1.0574035653 0.6937807248
0.2035282139 -1.0595746960 0.6929541959
0.2035969546 -1.0617523731 0.6921251750
0.2036659029 -1.0639366262 0.6912936506
0.2074813798 -1.1848093142 0.6452785668
0.2075625673 -1.1873813016 0.6442994356
0.2076440214 -1.1899617312 0.6433170906
0.2077257432 -1.1925506448 0.6423315158
0.2078077342 -1.1951480842 0.6413426953
0.2078899956 -1.1977540916 0.6403506130
0.2079725289 -1.2003687096 0.6393552528
0.2080553352 -1.2029919807 0.6383565984
0.2081384161 -1.2056239481 0.6373546334
0.2082217729 -1.2082646551 0.6363493414
0.2083054069 -1.2109141453 0.6353407056
0.1973478573 -0.8785977884 0.7612175289
0.1973998361 -0.8802639910 0.7605823869
0.1974519522 -0.8819345940 0.7599455674
0.2025147890 -1.0442259379 0.6980815070
0.2025813000 -1.0463579757 0.6972687926
0.2026480098 -1.0484963843 0.6964536497
0.2027149191 -1.0506411924 0.6956360674
0.2027820290 -1.0527924287 0.6948160347
0.2028493404 -1.0549501221 0.6939935405
0.2029168541 -1.0571143019 0.6931685739
0.2029845711 -1.0592849972 0.6923411235
0.2030524922 -1.0614622375 0.6915111783
0.2068106461 -1.1819314265 0.6455893626
0.2068906036 -1.1844944988 0.6446123415
0.2069708232 -1.1870659703 0.6436321188
0.2070513060 -1.1896458825 0.6426486785
0.2071320535 -1.1922342768 0.6416620049
0.2072130669 -1.1948311953 0.6406720820
0.2072943476 -1.1974366801 0.6396788937
0.2073758968 -1.2000507736 0.6386824238
0.2074577159 -1.2026735187 0.6376826560
0.2075398062 -1.2053049582 0.6366795739
0.2076221691 -1.2079451356 0.6356731611
0.1968722316 -0.8783443348 0.7606811602
0.1969235832 -0.8800102032 0.7600453108
0.1969750704 -0.8816804710 0.7594077822
0.2019768149 -1.0439392599 0.6974748274
0.2020425234 -1.0460708700 0.6966612079
0.2021084281 -1.0482088496 0.6958451572
0.2021745301 -1.0503532275 0.6950266643
0.2022408302 -1.0525040322 0.6942057184
0.2023073294 -1.0546612929 0.6933823083
0.2023740284 -1.0568250385 0.6925564229
0.2024409282 -1.0589952984 0.6917280511
0.2025080298 -1.0611721020 0.6908971816
0.2061420996 -1.1790629236 0.6458991449
0.2062208347 -1.1816171253 0.6449242254
0.2062998274 -1.1841796834 0.6439461163
0.2063790790 -1.1867506391 0.6429648020
0.2064585907 -1.1893300337 0.6419802665
0.2065383638 -1.1919179088 0.6409924941
0.2066183997 -1.1945143064 0.6400014688
0.2066986995 -1.1971192685 0.6390071744
0.2067792647 -1.1997328377 0.6380095948
0.2068600965 -1.2023550566 0.6370087136
0.1964473302 -0.8797564154 0.7595082348
0.1964981886 -0.8814263481 0.7588699970
0.2013741281 -1.0415277393 0.6976802492
0.2014388409 -1.0436525819 0.6968681477
0.2015037467 -1.0457837643 0.6960536231
0.2015688465 -1.0479213150 0.6952366647
0.2016341411 -1.0500652626 0.6944172613
0.2016996314 -1.0522156358 0.6935954022
0.2017653183 -1.0543724636 0.6927710761
0.2018312027 -1.0565357751 0.6919442720
0.2018972854 -1.0587055996 0.6911149787
0.2054757298 -1.1762037597 0.6462079187
0.2055532500 -1.1787491348 0.6452350923
0.2056310234 -1.1813028240 0.6442590883
0.2057090513 -1.1838648680 0.6432798911
0.2057873349 -1.1864353079 0.6422974851
0.2058658754 -1.1890141850 0.6413118545
0.2059446742 -1.1916015409 0.6403229833
0.2060237324 -1.1941974175 0.6393308555
0.2061030515 -1.1968018570 0.6383354551
0.2061826326 -1.1994149017 0.6373367657
0.1959710773 -0.8795026276 0.7589711588
0.1960213067 -0.8811722252 0.7583322118
0.1960716690 -0.8828462379 0.7576915751
0.2008369542 -1.0412414877 0.6970744719
0.2009008668 -1.0433659038 0.6962614680
0.2009649701 -1.0454966586 0.6954460384
0.2010292649 -1.0476337803 0.6946281721
0.2010937521 -1.0497772977 0.6938078583
0.2011584326 -1.0519272394 0.6929850859
0.2012233073 -1.0540836344 0.6921598439
0.2012883770 -1.0562465117 0.6913321211
0.2048115259 -1.1733538891 0.6465156888
0.2048878387 -1.1758904817 0.6455449470
0.2049644003 -1.1784353460 0.6445710396
0.2050412121 -1.1809885228 0.6435939511
0.2051182751 -1.1835500526 0.6426136659
0.2051955907 -1.1861199766 0.6416301683
0.2052731601 -1.1886983362 0.6406434424
0.2053509845 -1.1912851729 0.6396534724
0.2054290652 -1.1938805286 0.6386602422
0.2055074034 -1.1964844454 0.6376637358
0.1954948243 -0.8792488398 0.7584340827
0.1955444249 -0.8809181023 0.7577944265
0.1955941567 -0.8825917790 0.7571530788
0.2002368554 -1.0388375555 0.6972801832
0.2002997803 -1.0409552361 0.6964686946
0.2003628927 -1.0430792258 0.6956547883
0.2004261934 -1.0452095529 0.6948384536
0.2004896833 -1.0473462457 0.6940196796
0.2005533631 -1.0494893328 0.6931984553
0.2006172338 -1.0516388430 0.6923747697
0.2006812962 -1.0537948051 0.6915486117
0.2007455513 -1.0559572484 0.6907199701
0.2041494774 -1.1705132667 0.6468224602
0.2042245902 -1.1730411203 0.6458537946
0.2042999476 -1.1755772037 0.6448819753
0.2043755507 -1.1781215573 0.6439069869
0.2044514008 -1.1806742215 0.6429288139
0.2045274990 -1.1832352372 0.6419474407
0.2046038466 -1.1858046454 0.6409628515
0.2046804448 -1.1883824874 0.6399750304
0.2047572948 -1.1909688049 0.6389839616
0.2048343979 -1.1935636397 0.6379896290
0.1950675431 -0.8806639793 0.7572566413
0.1951166443 -0.8823373200 0.7566145825
0.1997004793 -1.0385517290 0.6966753056
0.1997626064 -1.0406689845 0.6958629173
0.1998249186 -1.0427925478 0.6950481087
0.1998874168 -1.0449224472 0.6942308689
0.1999501016 -1.0470587110 0.6934111871
0.2000129741 -1.0492013679 0.6925890523
0.2000760350 -1.0513504465 0.6917644534
0.2001392852 -1.0535059759 0.6909373795
0.2034895739 -1.1676818476 0.6471282377
0.2035634941 -1.1702010054 0.6461616399
0.2036376546 -1.1727283514 0.6451919004
0.2037120565 -1.1752639257 0.6442190036
0.2037867011 -1.1778077685 0.6432429343
0.2038615894 -1.1803599202 0.6422636768
0.2039367228 -1.1829204218 0.6412812155
0.2040121024 -1.1854893142 0.6402955346
0.2040877294 -1.1880666387 0.6393066184
0.2041636051 -1.1906524369 0.6383144508
0.1945906613 -0.8804098564 0.7567188561
0.1946391319 -0.8820828611 0.7560760862
0.1946877310 -0.8837602958 0.7554316144
0.1991029559 -1.0361553507 0.6968813038
0.1991641033 -1.0382659025 0.6960704280
0.1992254326 -1.0403827329 0.6952571400
0.1992869446 -1.0425058698 0.6944414290
0.1993486401 -1.0446353415 0.6936232841
0.1994105200 -1.0467711764 0.6928026945
0.1994725851 -1.0489134030 0.6919796492
0.1995348362 -1.0510620501 0.6911541372
0.2028318049 -1.1648595870 0.6474330261
0.2029045398 -1.1673700920 0.6464684879
0.2029775108 -1.1698887440 0.6455008197
0.2030507189 -1.1724155825 0.6445300061
0.2031241654 -1.1749506477 0.6435560319
0.2031978514 -1.1774939797 0.6425788816
0.2032717781 -1.1800456190 0.6415985396
0.2033459467 -1.1826056064 0.6406149903
0.2034203583 -1.1851739829 0.6396282178
0.2034950141 -1.1877507899 0.6386382063
0.1941137794 -0.8801557335 0.7561810708
0.1941616196 -0.8818284022 0.7555375899
0.1942095864 -0.8835055000 0.7548924052
0.1985072020 -1.0337660695 0.6970866920
0.1985673752 -1.0358699481 0.6962773233
0.1986277272 -1.0379800761 0.6954655504
0.1986882587 -1.0400964813 0.6946513627
0.1987489705 -1.0422191918 0.6938347493
0.1988098635 -1.0443482358 0.6930156994
0.1988709384 -1.0464836417 0.6921942020
0.1989321961 -1.0486254381 0.6913702462
0.1989936374 -1.0507736537 0.6905438209
0.1990552631 -1.0529283174 0.6897149150
0.2021048339 -1.1595526121 0.6486962139
0.2021761601 -1.1620464406 0.6477368302
0.2022477170 -1.1645483356 0.6467743433
0.2023195057 -1.1670583365 0.6458087381
0.2023915275 -1.1695764826 0.6448399994
0.2024637833 -1.1721028137 0.6438681119
0.2025362743 -1.1746373697 0.6428930603
0.2026090018 -1.1771801909 0.6419148290
0.2026819668 -1.1797313177 0.6409334024
0.2027551705 -1.1822907910 0.6399487650
0.2028286141 -1.1848586517 0.6389609009
0.1936368976 -0.8799016105 0.7556432856
0.1936841072 -0.8815739432 0.7549990936
0.1937314418 -0.8832507041 0.7543531959
0.1979724145 -1.0334810896 0.6964836058
0.1980317946 -1.0355845455 0.6956733427
0.1980913511 -1.0376942496 0.6948606728
0.1981510848 -1.0398102297 0.6940455854
0.1982109964 -1.0419325138 0.6932280696
0.1982710868 -1.0440611301 0.6924081146
0.1983313568 -1.0461961071 0.6915857095
0.1983918071 -1.0483374732 0.6907608432
0.1984524386 -1.0504852573 0.6899335047
0.2014524697 -1.1567570629 0.6489970069
0.2015226292 -1.1592423643 0.6480396548
0.2015930153 -1.1617356918 0.6470792110
0.2016636291 -1.1642370843 0.6461156606
0.2017344717 -1.1667465810 0.6451489883
0.2018055442 -1.1692642212 0.6441791791
0.2018768476 -1.1717900448 0.6432062177
0.2019483832 -1.1743240917 0.6422300886
0.2020201521 -1.1768664021 0.6412507763
0.2020921555 -1.1794170164 0.6402682653
0.1932065948 -0.8813194843 0.7544605974
0.1932532972 -0.8829959083 0.7538139867
0.1973792131 -1.0310992954 0.6966892783
0.1974376269 -1.0331961096 0.6958805196
0.1974962140 -1.0352991429 0.6950693622
0.1975549750 -1.0374084231 0.6942557952
0.1976139109 -1.0395239781 0.6934398081
0.1976730224 -1.0416458357 0.6926213899
0.1977323102 -1.0437740244 0.6918005299
0.1977917752 -1.0459085724 0.6909772169
0.2008022020 -1.1539704980 0.6492968333
0.2008712021 -1.1564473144 0.6483415046
0.2009404245 -1.1589321166 0.6473830958
0.2010098706 -1.1614249431 0.6464215919
0.2010795412 -1.1639258330 0.6454569778
0.2011494376 -1.1664348254 0.6444892386
0.2012195608 -1.1689519599 0.6435183589
0.2012899120 -1.1714772760 0.6425443235
0.2013604922 -1.1740108137 0.6415671169
0.2014313025 -1.1765526133 0.6405867236
0.1927290825 -0.8810650254 0.7539221011
0.1927751527 -0.8827411125 0.7532747774
0.1928213450 -0.8844216436 0.7526257375
0.1967877635 -1.0287245343 0.6968943435
0.1968452163 -1.0308147368 0.6960870838
0.1969028394 -1.0329111296 0.6952774334
0.1969606333 -1.0350137403 0.6944653816
0.1970185990 -1.0371225967 0.6936509176
0.1970767370 -1.0392377264 0.6928340308
0.1971350483 -1.0413591577 0.6920147103
0.1971935335 -1.0434869187 0.6911929451
0.1972521935 -1.0456210378 0.6903687244
0.1973110291 -1.0477615434 0.6895420371
0.2001540209 -1.1511928744 0.6495956977
0.2002218685 -1.1536612473 0.6486423844
0.2002899345 -1.1561375660 0.6476860023
0.2003582199 -1.1586218688 0.6467265368
0.2004267258 -1.1611141943 0.6457639727
0.2004954534 -1.1636145817 0.6447982951
0.2005644036 -1.1661230699 0.6438294888
0.2006335775 -1.1686396985 0.6428575386
0.2007029763 -1.1711645071 0.6418824292
0.2007726011 -1.1736975357 0.6409041452
0.1922515701 -0.8808105664 0.7533836048
0.1922970081 -0.8824863167 0.7527355682
0.1923425666 -0.8841665100 0.7520858134
0.1962545551 -1.0284403958 0.6962930381
0.1963112195 -1.0305301782 0.6954848894
0.1963680518 -1.0326261497 0.6946743472
0.1964250527 -1.0347283378 0.6938614010
0.1964822229 -1.0368367702 0.6930460400
0.1965395631 -1.0389514748 0.6922282535
0.1965970742 -1.0410724797 0.6914080306
0.1966547569 -1.0431998130 0.6905853604
0.1967126119 -1.0453335031 0.6897602319
0.1995079163 -1.1484241490 0.6498936046
0.1995746184 -1.1508841198 0.6489422987
0.1996415349 -1.1533519966 0.6479879354
0.1997086669 -1.1558278175 0.6470305000
0.1997760152 -1.1583116210 0.6460699777
0.1998435811 -1.1608034456 0.6451063535
0.1999113655 -1.1633033303 0.6441396123
0.1999793695 -1.1658113144 0.6431697390
0.2000475942 -1.1683274371 0.6421967184
0.2001160407 -1.1708517382 0.6412205350
0.1918188635 -0.8822315208 0.7521963589
0.1918637881 -0.8839113764 0.7515458893
0.1956656354 -1.0260730557 0.6964983851
0.1957213467 -1.0281562574 0.6956917327
0.1957772227 -1.0302456196 0.6948826949
0.1958332643 -1.0323411697 0.6940712610
0.1958894721 -1.0344429352 0.6932574205
0.1959458468 -1.0365509437 0.6924411624
0.1960023892 -1.0386652232 0.6916224762
0.1960591001 -1.0407858017 0.6908013509
0.1961159802 -1.0429127073 0.6899777756
0.1988638781 -1.1456642790 0.6501905587
0.1989294418 -1.1481158889 0.6492412522
0.1989952159 -1.1505753653 0.6482888996
0.1990612014 -1.1530427459 0.6473334864
0.1991273993 -1.1555180691 0.6463749977
0.1991938106 -1.1580013732 0.6454134187
0.1992604363 -1.1604926969 0.6444487343
0.1993272776 -1.1629920790 0.6434809295
0.1993943355 -1.1654995588 0.6425099892
0.1994616109 -1.1680151757 0.6415358981
0.1913407189 -0.8819767250 0.7516571497
0.1913850096 -0.8836562428 0.7510059652
0.1951332130 -1.0257893361 0.6958979662
0.1951881383 -1.0278721189 0.6950904274
0.1952432259 -1.0299610610 0.6942805004
0.1952984768 -1.0320561897 0.6934681748
0.1953538914 -1.0341575326 0.6926534399
0.1954094707 -1.0362651173 0.6918362848
0.1954652154 -1.0383789716 0.6910166989
0.1955211261 -1.0404991237 0.6901946712
0.1955772036 -1.0426256016 0.6893701909
0.1982218966 -1.1429132223 0.6504865645
0.1982863288 -1.1453565120 0.6495392495
0.1983509674 -1.1478076289 0.6485888997
0.1984158134 -1.1502666107 0.6476355006
0.1984808678 -1.1527334952 0.6466790375
0.1985461317 -1.1552083206 0.6457194954
0.1986116059 -1.1576911254 0.6447568596
0.1986772916 -1.1601819481 0.6437911151
0.1987431897 -1.1626808277 0.6428222468
0.1988093014 -1.1651878033 0.6418502394
0.1908625744 -0.8817219292 0.7511179405
0.1909062312 -0.8834011092 0.7504660411
0.1909500039 -0.8850847473 0.7498124111
0.1946007907 -1.0255056165 0.6952975473
0.1946549299 -1.0275879805 0.6944891220
0.1947092291 -1.0296765024 0.6936783060
0.1947636892 -1.0317712098 0.6928650887
0.1948183108 -1.0338721300 0.6920494593
0.1948730946 -1.0359792908 0.6912314072
0.1949280415 -1.0380927200 0.6904109216
0.1949831520 -1.0402124457 0.6895879915
0.1975819619 -1.1401709364 0.6507816266
0.1976452694 -1.1426059466 0.6498362952
0.1977087795 -1.1450487450 0.6488879403
0.1977724930 -1.1474993689 0.6479365473
0.1978364109 -1.1499578561 0.6469821016
0.1979005343 -1.1524242445 0.6460245885
0.1979648641 -1.1548985722 0.6450639931
0.1980294012 -1.1573808776 0.6441003006
0.1980941468 -1.1598711994 0.6431334959
0.1981591019 -1.1623695764 0.6421635640
0.1903844298 -0.8814671334 0.7505787312
0.1904274527 -0.8831459755 0.7499261171
0.1904705899 -0.8848292750 0.7492717703
0.1940151724 -1.0231460815 0.6955040575
0.1940683684 -1.0252218969 0.6946971284
0.1941217215 -1.0273038420 0.6938878166
0.1941752323 -1.0293919438 0.6930761115
0.1942289017 -1.0314862298 0.6922620025
0.1942827302 -1.0335867274 0.6914454788
0.1943367186 -1.0356934643 0.6906265296
0.1943908676 -1.0378064684 0.6898051443
0.1944451779 -1.0399257676 0.6889813119
0.1968820720 -1.1350183212 0.6520161069
0.1969440641 -1.1374373797 0.6510757494
0.1970062539 -1.1398641506 0.6501323939
0.1970686422 -1.1422986710 0.6491860260
0.1971312301 -1.1447409779 0.6482366311
0.1971940185 -1.1471911089 0.6472841949
0.1972570084 -1.1496491016 0.6463287026
0.1973202007 -1.1521149938 0.6453701395
0.1973835964 -1.1545888237 0.6444084908
0.1974471966 -1.1570706298 0.6434437416
0.1975110021 -1.1595604506 0.6424758768
0.1899486743 -0.8828908419 0.7493861930
0.1899911759 -0.8845738027 0.7487311294
0.1934312758 -1.0207934831 0.6957099606
0.1934835339 -1.0228627796 0.6949045225
0.1935359461 -1.0249381774 0.6940967096
0.1935885131 -1.0270197035 0.6932865113
0.1936412355 -1.0291073852 0.6924739171
0.1936941141 -1.0312012498 0.6916589163
0.1937471495 -1.0333013248 0.6908414982
0.1938003425 -1.0354076378 0.6900216520
0.1938536937 -1.0375202168 0.6891993670
0.1962473087 -1.1323016129 0.6523073379
0.1963081937 -1.1347125104 0.6513689375
0.1963692724 -1.1371310821 0.6504275501
0.1964305459 -1.1395573648 0.6494831612
0.1964920150 -1.1419913953 0.6485357567
0.1965536808 -1.1444332109 0.6475853220
0.1966155441 -1.1468828489 0.6466318425
0.1966776059 -1.1493403470 0.6456753036
0.1967398672 -1.1518057431 0.6447156906
0.1968023288 -1.1542790753 0.6437529885
0.1968649919 -1.1567603820 0.6427871825
0.1894698958 -0.8826357083 0.7488462689
0.1895117618 -0.8843183304 0.7481904886
0.1895537392 -0.8860054257 0.7475329650
0.1929004187 -1.0205105976 0.6951113068
0.1929518954 -1.0225794777 0.6943049875
0.1930035238 -1.0246544578 0.6934962907
0.1930553047 -1.0267355651 0.6926852059
0.1931072387 -1.0288228267 0.6918717226
0.1931593266 -1.0309162699 0.6910558301
0.1932115689 -1.0330159222 0.6902375176
0.1932639664 -1.0351218114 0.6894167744
0.1933165198 -1.0372339652 0.6885935897
0.1956145564 -1.1295935111 0.6525976464
0.1956743408 -1.1319962872 0.6516611953
0.1957343153 -1.1344066996 0.6507217682
0.1957944807 -1.1368247846 0.6497793507
0.1958548379 -1.1392505790 0.6488339286
0.1959153879 -1.1416841197 0.6478854874
0.1959761315 -1.1441254438 0.6469340128
0.1960370697 -1.1465745889 0.6459794901
0.1960982034 -1.1490315924 0.6450219046
0.1961595336 -1.1514964924 0.6440612416
0.1889911173 -0.8823805747 0.7483063448
0.1890323478 -0.8840628581 0.7476498478
0.1890736879 -0.8857496138 0.7469916055
0.1923190152 -1.0181653205 0.6953174841
0.1923695616 -1.0202277121 0.6945126531
0.1924202568 -1.0222961757 0.6937054524
0.1924711015 -1.0243707382 0.6928958718
0.1925220963 -1.0264514266 0.6920839006
0.1925732419 -1.0285382681 0.6912695281
0.1926245390 -1.0306312899 0.6904527439
0.1926759883 -1.0327305196 0.6896335371
0.1927275903 -1.0348359849 0.6888118969
0.1949838054 -1.1268939751 0.6528870366
0.1950424961 -1.1292886691 0.6519525273
0.1951013730 -1.1316909616 0.6510150528
0.1951604370 -1.1341008887 0.6500745988
0.1952196890 -1.1365184870 0.6491311513
0.1952791299 -1.1389437932 0.6481846959
0.1953387607 -1.1413768440 0.6472352182
0.1953985821 -1.1438176768 0.6462827036
0.1954585952 -1.1462663289 0.6453271377
0.1955188009 -1.1487228379 0.6443685056
0.1885123389 -0.8821254411 0.7477664207
0.1885529338 -0.8838073858 0.7471092070
0.1885936366 -0.8854938019 0.7464502461
0.1917889373 -1.0178828503 0.6947197090
0.1918387045 -1.0199448266 0.6939139993
0.1918886183 -1.0220128738 0.6931059174
0.1919386792 -1.0240870187 0.6922954529
0.1919888879 -1.0261672882 0.6914825952
0.1920392451 -1.0282537095 0.6906673337
0.1920897515 -1.0303463099 0.6898496577
0.1921404076 -1.0324451170 0.6890295565
0.1943550464 -1.1242029643 0.6531755129
0.1944126499 -1.1265896152 0.6522429377
0.1944704358 -1.1289838271 0.6513074082
0.1945284051 -1.1313856359 0.6503689102
0.1945865586 -1.1337950779 0.6494274295
0.1946448973 -1.1362121895 0.6484829520
0.1947034219 -1.1386370073 0.6475354633
0.1947621335 -1.1410695684 0.6465849489
0.1948210328 -1.1435099098 0.6456313945
0.1948801208 -1.1459580688 0.6446747852
0.1880735198 -0.8835519135 0.7465685662
0.1881135853 -0.8852379901 0.7459088866
0.1912100150 -1.0155448617 0.6949261581
0.1912588594 -1.0176003800 0.6941219340
0.1913078475 -1.0196619412 0.6933153455
0.1913569797 -1.0217295719 0.6925063824
0.1914062569 -1.0238032991 0.6916950340
0.1914556795 -1.0258831497 0.6908812898
0.1915052483 -1.0279691509 0.6900651392
0.1915549639 -1.0300613300 0.6892465715
0.1916048270 -1.0321597145 0.6884255759
0.1937282699 -1.1215204383 0.6534630796
0.1937847927 -1.1238990849 0.6525324311
0.1938414943 -1.1262852553 0.6515988389
0.1938983755 -1.1286789851 0.6506622891
0.1939554372 -1.1310803103 0.6497227676
0.1940126803 -1.1334892671 0.6487802602
0.1940701056 -1.1359058919 0.6478347526
0.1941277140 -1.1383302215 0.6468862306
0.1941855063 -1.1407622927 0.6459346797
0.1942434835 -1.1432021427 0.6449800853
0.1875941057 -0.8832964412 0.7460279254
0.1876335340 -0.8849821782 0.7453675271
0.1876730673 -0.8866724026 0.7447053709
0.1906807139 -1.0152628054 0.6943292591
0.1907287815 -1.0173179097 0.6935241589
0.1907769904 -1.0193790557 0.6927166918
0.1908253412 -1.0214462700 0.6919068474
0.1908738346 -1.0235195795 0.6910946151
0.1909224711 -1.0255990112 0.6902799845
0.1909712515 -1.0276845923 0.6894629448
0.1910201764 -1.0297763500 0.6886434853
0.1929381628 -1.1117788820 0.6565184695
0.1929930911 -1.1141273140 0.6555984563
0.1931034665 -1.1188463570 0.6537497410
0.1931589152 -1.1212170380 0.6528210116
0.1932145390 -1.1235952056 0.6518893493
0.1932703387 -1.1259808954 0.6509547401
0.1933263152 -1.1283741431 0.6500171700
0.1933824694 -1.1307749846 0.6490766250
0.1934388020 -1.1331834563 0.6481330908
0.1934953139 -1.1355995944 0.6471865533
0.1935520060 -1.1380234357 0.6462369980
0.1936088791 -1.1404550171 0.6452844104
0.1871146917 -0.8830409689 0.7454872845
0.1871534827 -0.8847263663 0.7448261677
0.1871923771 -0.8864162502 0.7441632909
0.1901042607 -1.0129320727 0.6945359775
0.1901514129 -1.0149807491 0.6937323602
0.1901987036 -1.0170354394 0.6929263838
0.1902461333 -1.0190961702 0.6921180380
0.1902937027 -1.0211629681 0.6913073123
0.1903414123 -1.0232358600 0.6904941962
0.1903892627 -1.0253148728 0.6896786791
0.1904372547 -1.0274000337 0.6888607503
0.1923185045 -1.1091367694 0.6567985582
0.1923723760 -1.1114773830 0.6558804251
0.1924264165 -1.1138253419 0.6549594107
0.1924806269 -1.1161806807 0.6540355015
0.1925350080 -1.1185434343 0.6531086837
0.1925895605 -1.1209136378 0.6521789437
0.1926442853 -1.1232913263 0.6512462675
0.1926991832 -1.1256765355 0.6503106412
0.1927542550 -1.1280693011 0.6493720509
0.1928095015 -1.1304696590 0.6484304824
0.1928649236 -1.1328776454 0.6474859215
0.1929205222 -1.1352932969 0.6465383539
0.1929762980 -1.1377166499 0.6455877653
0.1866734315 -0.8844705544 0.7442848082
0.1867116868 -0.8861600979 0.7436212109
0.1895757343 -1.0126504292 0.6939399520
0.1896221119 -1.0146986928 0.6931354612
0.1896686257 -1.0167529692 0.6923286087
0.1897152762 -1.0188132847 0.6915193843
0.1897620641 -1.0208796662 0.6907077773
0.1898089900 -1.0229521404 0.6898937773
0.1898560544 -1.0250307343 0.6890773737
0.1899032579 -1.0271154751 0.6882585558
0.1917007817 -1.1065029095 0.6570777720
0.1917536027 -1.1088357421 0.6561615118
0.1918065892 -1.1111758841 0.6552423807
0.1918597419 -1.1135233699 0.6543203651
0.1919130618 -1.1158782341 0.6533954516
0.1919665494 -1.1182405116 0.6524676264
0.1920202058 -1.1206102375 0.6515368757
0.1920740316 -1.1229874470 0.6506031857
0.1921280276 -1.1253721756 0.6496665424
0.1921821947 -1.1277644591 0.6487269318
0.1922365336 -1.1301643333 0.6477843398
0.1922910453 -1.1325718346 0.6468387521
0.1923457305 -1.1349869993 0.6458901546
0.1861933802 -0.8842147425 0.7437434488
0.1862309966 -0.8859039455 0.7430791309
0.1862687133 -0.8875976511 0.7424130422
0.1890017381 -1.0103269201 0.6941469372
0.1890472079 -1.0123687857 0.6933439266
0.1890928109 -1.0144166366 0.6925385622
0.1891385478 -1.0164704989 0.6917308337
0.1891844192 -1.0185303992 0.6909207305
0.1892304256 -1.0205963643 0.6901082423
0.1892765676 -1.0226684208 0.6892933585
0.1893228460 -1.0247465959 0.6884760684
0.1910849854 -1.1038772635 0.6573561151
0.1911367621 -1.1062023522 0.6564417205
0.1911887009 -1.1085347147 0.6555244654
0.1912408024 -1.1108743851 0.6546043362
0.1912930674 -1.1132213978 0.6536813196
0.1913454966 -1.1155757875 0.6527554017
0.1913980909 -1.1179375890 0.6518265690
0.1914508511 -1.1203068373 0.6508948077
0.1915037779 -1.1226835677 0.6499601039
0.1915568720 -1.1250678157 0.6490224435
0.1916101344 -1.1274596170 0.6480818127
0.1916635658 -1.1298590077 0.6471381972
0.1857133289 -0.8839589307 0.7432020893
0.1857503064 -0.8856477931 0.7425370509
0.1857873824 -0.8873411574 0.7418702398
0.1884739840 -1.0100456881 0.6935517828
0.1885186815 -1.0120871422 0.6927479012
0.1885635099 -1.0141345803 0.6919416633
0.1886084699 -1.0161880286 0.6911330586
0.1886535621 -1.0182475138 0.6903220768
0.1886987870 -1.0203130624 0.6895087073
0.1887441453 -1.0223847013 0.6886929396
0.1887896376 -1.0244624574 0.6878747630
0.1905218453 -1.1035771749 0.6567210554
0.1905727426 -1.1059017950 0.6558056690
0.1906237991 -1.1082336873 0.6548874190
0.1906750156 -1.1105728861 0.6539662918
0.1907263928 -1.1129194258 0.6530422740
0.1907779315 -1.1152733409 0.6521153518
0.1908296324 -1.1176346663 0.6511855117
0.1908814964 -1.1200034370 0.6502527397
0.1909335241 -1.1223796883 0.6493170220
0.1909857165 -1.1247634558 0.6483783447
0.1910380741 -1.1271547750 0.6474366936
0.1852332776 -0.8837031188 0.7426607299
0.1852696161 -0.8853916408 0.7419949709
0.1853060515 -0.8870846636 0.7413274373
0.1879024331 -1.0077293702 0.6937590323
0.1879462300 -1.0097644562 0.6929566283
0.1879901550 -1.0118054987 0.6921518758
0.1880342089 -1.0138525240 0.6913447643
0.1880783920 -1.0159055583 0.6905352835
0.1881227050 -1.0179646283 0.6897234230
0.1881671485 -1.0200297605 0.6889091723
0.1882117230 -1.0221009817 0.6880925207
0.1899088431 -1.1009601717 0.6569995205
0.1899587052 -1.1032770863 0.6560859957
0.1900087230 -1.1056012377 0.6551696175
0.1900588973 -1.1079326599 0.6542503726
0.1901092288 -1.1102713871 0.6533282474
0.1901597182 -1.1126174537 0.6524032284
0.1902103663 -1.1149708942 0.6514753020
0.1902611739 -1.1173317436 0.6505444544
0.1903121417 -1.1197000368 0.6496106717
0.1903632704 -1.1220758090 0.6486739402
0.1904145609 -1.1244590959 0.6477342459
0.1847889259 -0.8851354884 0.7414528909
0.1848247206 -0.8868281698 0.7407846348
0.1873325478 -1.0054198024 0.6939656779
0.1873754492 -1.0074485487 0.6931647463
0.1874184759 -1.0094832243 0.6923614739
0.1874616286 -1.0115238552 0.6915558503
0.1875049078 -1.0135704677 0.6907478653
0.1875483141 -1.0156230881 0.6899375084
0.1875918479 -1.0176817428 0.6891247693
0.1876355100 -1.0197464585 0.6883096372
0.1876793007 -1.0218172621 0.6874921018
0.1892977467 -1.0983513047 0.6572771198
0.1893465797 -1.1006605504 0.6563654495
0.1893955651 -1.1029769977 0.6554509360
0.1894447034 -1.1053006805 0.6545335660
0.1894939954 -1.1076316325 0.6536133262
0.1895434419 -1.1099698881 0.6526902030
0.1895930436 -1.1123154816 0.6517641828
0.1896428012 -1.1146684476 0.6508352521
0.1896927154 -1.1170288209 0.6499033970
0.1897427870 -1.1193966365 0.6489686038
0.1897930167 -1.1217719297 0.6480308584
0.1898434053 -1.1241547360 0.6470901470
0.1843082357 -0.8848793360 0.7409108108
0.1843433897 -0.8865716761 0.7402418323
0.1843786376 -0.8882685332 0.7395710681
0.1868063317 -1.0051393900 0.6933722578
0.1868484652 -1.0071677271 0.6925704603
0.1868907219 -1.0092019923 0.6917663194
0.1869331022 -1.0112422117 0.6909598249
0.1869756068 -1.0132884114 0.6901509663
0.1870182362 -1.0153406178 0.6893397334
0.1870609909 -1.0173988573 0.6885261155
0.1871038714 -1.0194631566 0.6877101022
0.1886408852 -1.0934560558 0.6584608607
0.1886885472 -1.0957505357 0.6575538575
0.1887363574 -1.0980521490 0.6566440345
0.1887843164 -1.1003609290 0.6557313785
0.1888324250 -1.1026769091 0.6548158763
0.1888806838 -1.1050001232 0.6538975145
0.1889290936 -1.1073306052 0.6529762798
0.1889776551 -1.1096683892 0.6520521585
0.1890263690 -1.1120135096 0.6511251372
0.1890752361 -1.1143660010 0.6501952022
0.1891242569 -1.1167258982 0.6492623397
0.1891734323 -1.1190932363 0.6483265358
0.1892227630 -1.1214680504 0.6473877766
0.1838275454 -0.8846231837 0.7403687308
0.1838620588 -0.8863151823 0.7396990298
0.1838966643 -0.8880116971 0.7390275413
0.1862801156 -1.0048589776 0.6927788377
0.1863214812 -1.0068869055 0.6919761743
0.1863629678 -1.0089207604 0.6911711650
0.1864045758 -1.0109605682 0.6903637995
0.1864463058 -1.0130063551 0.6895540674
0.1864881583 -1.0150581475 0.6887419583
0.1865301338 -1.0171159718 0.6879274617
0.1880345872 -1.0908709091 0.6587349105
0.1880812358 -1.0931578273 0.6578297375
0.1881280292 -1.0954518444 0.6569217547
0.1881749680 -1.0977529934 0.6560109491
0.1882220530 -1.1000613076 0.6550973075
0.1882692849 -1.1023768205 0.6541808166
0.1883166642 -1.1046995660 0.6532614630
0.1883641918 -1.1070295778 0.6523392334
0.1884118683 -1.1093668902 0.6514141141
0.1884596945 -1.1117115375 0.6504860917
0.1885076709 -1.1140635544 0.6495551523
0.1885557984 -1.1164229755 0.6486212823
0.1833807279 -0.8860586885 0.7391562273
0.1834146911 -0.8877548610 0.7384840144
0.1857134198 -1.0025569463 0.6929866088
0.1857538995 -1.0045785652 0.6921854177
0.1857944973 -1.0066060840 0.6913818883
0.1858352138 -1.0086395285 0.6905760106
0.1858760494 -1.0106789247 0.6897677740
0.1859170048 -1.0127242989 0.6889571684
0.1859580804 -1.0147756772 0.6881441832
0.1859992767 -1.0168330864 0.6873288080
0.1874301625 -1.0882937497 0.6590081135
0.1874758037 -1.0905731421 0.6581047637
0.1875215864 -1.0928595989 0.6571986142
0.1875675111 -1.0951531531 0.6562896519
0.1876135787 -1.0974538377 0.6553778638
0.1876597897 -1.0997616862 0.6544632365
0.1877061448 -1.1020767319 0.6535457569
0.1877526447 -1.1043990087 0.6526254115
0.1877992900 -1.1067285504 0.6517021870
0.1878460815 -1.1090653912 0.6507760697
0.1828993970 -0.8858021948 0.7386134248
0.1829327178 -0.8874980250 0.7379404875
0.1851879693 -1.0022769419 0.6923940521
0.1852276833 -1.0042981528 0.6915919976
0.1852675133 -1.0063252624 0.6907876023
0.1853074597 -1.0083582965 0.6899808561
0.1853475230 -1.0103972812 0.6891717486
0.1853877038 -1.0124422426 0.6883602694
0.1854280025 -1.0144932070 0.6875464081
0.1868276024 -1.0857245408 0.6592804737
0.1868722423 -1.0879964427 0.6583789403
0.1869170202 -1.0902753750 0.6574746170
0.1869619369 -1.0925613704 0.6565674910
0.1870069931 -1.0948544617 0.6556575492
0.1870521893 -1.0971546821 0.6547447784
0.1870975263 -1.0994620648 0.6538291655
0.1871430047 -1.1017766433 0.6529106972
0.1871886251 -1.1040984514 0.6519893600
0.1824180661 -0.8855457010 0.7380706223
0.1824507446 -0.8872411889 0.7373969606
0.1824835103 -0.8889412083 0.7367214983
0.1846236835 -0.9999820064 0.6926020804
0.1846625188 -1.0019969375 0.6918014954
0.1847014672 -1.0040177405 0.6909985775
0.1847405294 -1.0060444409 0.6901933163
0.1847797057 -1.0080770646 0.6893857017
0.1848189966 -1.0101156377 0.6885757232
0.1848584027 -1.0121601863 0.6877633705
0.1848979246 -1.0142107367 0.6869486331
0.1862268983 -1.0831632454 0.6595519950
0.1862705427 -1.0854276923 0.6586522709
0.1863143220 -1.0876991357 0.6577497670
0.1863582367 -1.0899776080 0.6568444703
0.1864022875 -1.0922631419 0.6559363677
0.1864464751 -1.0945557704 0.6550254464
0.1864908000 -1.0968555265 0.6541116931
0.1865352630 -1.0991624434 0.6531950945
0.1865798646 -1.1014765548 0.6522756375
0.1819367353 -0.8852892073 0.7375278198
0.1819687713 -0.8869843528 0.7368534337
0.1820008930 -0.8886840290 0.7361772451
0.1840610350 -0.9976937295 0.6928095050
0.1840989964 -0.9997024088 0.6920103846
0.1841370683 -1.0017169331 0.6912089387
0.1841752511 -1.0037373281 0.6904051574
0.1842135454 -1.0057636193 0.6895990303
0.1842519516 -1.0077958327 0.6887905472
0.1842904702 -1.0098339942 0.6879796977
0.1843291017 -1.0118781300 0.6871664715
0.1856280417 -1.0806098273 0.6598226812
0.1856706966 -1.0828668542 0.6589247597
0.1857134830 -1.0851308439 0.6580240682
0.1857564017 -1.0874018286 0.6571205937
0.1857994532 -1.0896798409 0.6562143235
0.1858426381 -1.0919649135 0.6553052445
0.1858859570 -1.0942570791 0.6543933436
0.1859294107 -1.0965563708 0.6534786077
0.1859729996 -1.0988628220 0.6525610235
0.1814867980 -0.8867275168 0.7363099068
0.1815182756 -0.8884268497 0.7356329919
0.1835371090 -0.9974145375 0.6922186676
0.1835743093 -0.9994228112 0.6914186888
0.1836116178 -1.0014369287 0.6906163821
0.1836490350 -1.0034569157 0.6898117373
0.1836865614 -1.0054827977 0.6890047443
0.1837241975 -1.0075146007 0.6881953928
0.1837619438 -1.0095523507 0.6873836723
0.1850310239 -1.0780642500 0.6600925363
0.1850726952 -1.0803138918 0.6591964105
0.1851144948 -1.0825704629 0.6582975245
0.1851564233 -1.0848339954 0.6573958654
0.1851984814 -1.0871045216 0.6564914205
0.1852406696 -1.0893820739 0.6555841768
0.1852829886 -1.0916666850 0.6546741213
0.1853254390 -1.0939583877 0.6537612409
0.1853680213 -1.0962572152 0.6528455224
0.1810048248 -0.8864706807 0.7357663799
0.1810356583 -0.8881696704 0.7350887386
0.1810665743 -0.8898732071 0.7344092838
0.1829768496 -0.9951332948 0.6924263472
0.1830131831 -0.9971353455 0.6916278302
0.1830496222 -0.9991432136 0.6908269930
0.1830861673 -1.0011569243 0.6900238254
0.1831228189 -1.0031765033 0.6892183172
0.1831595775 -1.0052019762 0.6884104583
0.1831964435 -1.0072333688 0.6876002383
0.1832334174 -1.0092707072 0.6867876469
0.1844358367 -1.0755264775 0.6603615639
0.1844765301 -1.0777687689 0.6594672271
0.1845173487 -1.0800179563 0.6585701397
0.1845582930 -1.0822740716 0.6576702892
0.1845993636 -1.0845371470 0.6567676626
0.1846405611 -1.0868072146 0.6558622472
0.1846818861 -1.0890843069 0.6549540300
0.1847233392 -1.0913684565 0.6540429980
0.1847649210 -1.0936596964 0.6531291381
0.1805228515 -0.8862138446 0.7352228530
0.1805530410 -0.8879124911 0.7345444854
0.1805833112 -0.8896156837 0.7338643023
0.1824182110 -0.9928586518 0.6926334260
0.1824536826 -0.9948545072 0.6918363657
0.1824892572 -0.9968561536 0.6910369928
0.1825249351 -0.9988636160 0.6902352971
0.1825607168 -1.0008769199 0.6894312687
0.1825966028 -1.0028960909 0.6886248972
0.1826325935 -1.0049211546 0.6878161723
0.1826686894 -1.0069521369 0.6870050839
0.1838424715 -1.0729964740 0.6606297680
0.1838821929 -1.0752314493 0.6597372133
0.1839220363 -1.0774732877 0.6588419179
0.1839620022 -1.0797220208 0.6579438690
0.1840020912 -1.0819776804 0.6570430539
0.1840423039 -1.0842402985 0.6561394599
0.1840826408 -1.0865099075 0.6552330740
0.1841231026 -1.0887865398 0.6543238833
0.1841636898 -1.0910702280 0.6534118748
0.1800408783 -0.8859570086 0.7346793261
0.1800704236 -0.8876553119 0.7340002322
0.1801000480 -0.8893581603 0.7333193208
0.1818958009 -0.9925802675 0.6920442979
0.1819305157 -0.9945757197 0.6912463842
0.1819653313 -0.9965769616 0.6904461554
0.1820002480 -0.9985840184 0.6896436013
0.1820352663 -1.0005969155 0.6888387120
0.1820703867 -1.0026156785 0.6880314771
0.1821056096 -1.0046403331 0.6872218863
0.1832122832 -1.0682533091 0.6617852128
0.1832509200 -1.0704742038 0.6608971523
0.1832896751 -1.0727018974 0.6600063731
0.1833285491 -1.0749364212 0.6591128627
0.1833675424 -1.0771778066 0.6582166087
0.1834066557 -1.0794260853 0.6573175982
0.1834458894 -1.0816812891 0.6564158186
0.1834852442 -1.0839434501 0.6555112571
0.1835247206 -1.0862126005 0.6546039007
0.1835643191 -1.0884887728 0.6536937366
0.1795878063 -0.8873981326 0.7334559790
0.1796167849 -0.8891006368 0.7327743393
0.1813395307 -0.9903125979 0.6922516294
0.1813733907 -0.9923018833 0.6914551698
0.1814073487 -0.9942969322 0.6906564027
0.1814414053 -0.9962977696 0.6898553179
0.1814755609 -0.9983044208 0.6890519055
0.1815098158 -1.0003169111 0.6882461553
0.1815441706 -1.0023352662 0.6874380570
0.1815786256 -1.0043595115 0.6866276003
0.1816131813 -1.0063896730 0.6858147750
0.1826234945 -1.0657459522 0.6620500217
0.1826611739 -1.0679596316 0.6611637205
0.1826989685 -1.0701800774 0.6602747101
0.1827368788 -1.0724073208 0.6593829781
0.1827749053 -1.0746413930 0.6584885121
0.1828130486 -1.0768823255 0.6575912995
0.1828513092 -1.0791301498 0.6566913274
0.1828896877 -1.0813848978 0.6557885833
