-0.3693068769 -0.5804997435 0.8188475635
-0.3686834790 -0.5802802914 0.8199922713
-0.3517789680 -0.5743294702 0.8510330026
-0.3511942597 -0.5741236379 0.8521066669
-0.3506108208 -0.5739182524 0.8531780006
-0.3500286470 -0.5737133123 0.8542470111
-0.3494477343 -0.5735088161 0.8553137060
-0.3488680785 -0.5733047624 0.8563780928
-0.3482896757 -0.5731011498 0.8574401790
-0.3477125216 -0.5728979768 0.8584999721
-0.3471366124 -0.5726952420 0.8595574794
-0.3711582142 -0.5807234825 0.8166732647
-0.3705313326 -0.5805032854 0.8178229918
-0.3699058592 -0.5802835829 0.8189701362
-0.3692817893 -0.5800643734 0.8201147065
-0.3523590552 -0.5741201284 0.8511517087
-0.3517737166 -0.5739145236 0.8522252441
-0.3511896487 -0.5737093651 0.8532964490
-0.3506068474 -0.5735046515 0.8543653311
-0.3500253084 -0.5733003813 0.8554318979
-0.3494450278 -0.5730965531 0.8564961568
-0.3488660014 -0.5728931655 0.8575581154
-0.3482882252 -0.5726902170 0.8586177812
-0.3717585451 -0.5805068353 0.8167961134
-0.3711309885 -0.5802868817 0.8179457024
-0.3705048415 -0.5800674223 0.8190927089
-0.3698800996 -0.5798484553 0.8202371417
-0.3529391424 -0.5739107867 0.8512704148
-0.3523531735 -0.5737054094 0.8523438212
-0.3517684767 -0.5735004779 0.8534148975
-0.3511850477 -0.5732959907 0.8544836511
-0.3506028825 -0.5730919465 0.8555500897
-0.3500219770 -0.5728883439 0.8566142208
-0.3494423271 -0.5726851813 0.8576760518
-0.3488639287 -0.5724824573 0.8587355902
-0.3482867778 -0.5722801706 0.8597928435
-0.3729885238 -0.5805103932 0.8157669204
-0.3723588761 -0.5802901880 0.8169189621
-0.3717306443 -0.5800704781 0.8180684130
-0.3711038239 -0.5798512617 0.8192152816
-0.3535192296 -0.5737014450 0.8513891209
-0.3529326304 -0.5734962951 0.8524623984
-0.3523473046 -0.5732915906 0.8535333459
-0.3517632481 -0.5730873300 0.8546019711
-0.3511804567 -0.5728835118 0.8556682816
-0.3505989263 -0.5726801346 0.8567322848
-0.3500186529 -0.5724771970 0.8577939882
-0.3494396323 -0.5722746976 0.8588533993
-0.3735895313 -0.5802935018 0.8158899076
-0.3729592070 -0.5800735408 0.8170418108
-0.3723303002 -0.5798540745 0.8181911235
-0.3717028062 -0.5796351012 0.8193378544
-0.3546878252 -0.5736974720 0.8504323414
-0.3540993168 -0.5734921033 0.8515078270
-0.3535120873 -0.5732871809 0.8525809755
-0.3529261325 -0.5730827033 0.8536517943
-0.3523414484 -0.5728786692 0.8547202911
-0.3517580308 -0.5726750770 0.8557864735
-0.3511758755 -0.5724719253 0.8568503488
-0.3505949786 -0.5722692127 0.8579119246
-0.3500153359 -0.5720669378 0.8589712084
-0.3748229636 -0.5802968230 0.8148585309
-0.3741905388 -0.5800766104 0.8160128947
-0.3735595379 -0.5798568935 0.8171646595
-0.3729299561 -0.5796376708 0.8183138341
-0.3552685441 -0.5734879024 0.8505511768
-0.3546794040 -0.5732827616 0.8516265332
-0.3540915442 -0.5730780667 0.8526995526
-0.3535049605 -0.5728738161 0.8537702428
-0.3529196488 -0.5726700084 0.8548386112
-0.3523356049 -0.5724666422 0.8559046653
-0.3517528248 -0.5722637160 0.8569684128
-0.3511713043 -0.5720612284 0.8580298610
-0.3505910394 -0.5718591781 0.8590890175
-0.3016029815 -0.5548013566 0.9485068294
-0.3011247573 -0.5546348372 0.9493797310
-0.3754246492 -0.5800796869 0.8149816568
-0.3747915463 -0.5798597189 0.8161358819
-0.3741598688 -0.5796402463 0.8172875082
-0.3735296120 -0.5794212672 0.8184365446
-0.3558492630 -0.5732783327 0.8506700121
-0.3552594912 -0.5730734199 0.8517452393
-0.3546710010 -0.5728689524 0.8528181298
-0.3540837884 -0.5726649288 0.8538886912
-0.3534978491 -0.5724613476 0.8549569312
-0.3529131790 -0.5722582074 0.8560228572
-0.3523297740 -0.5720555067 0.8570864768
-0.3517476301 -0.5718532442 0.8581477974
-0.3511667430 -0.5716514183 0.8592068266
-0.3021261589 -0.5546125524 0.9486138898
-0.3760263348 -0.5798625507 0.8151047827
-0.3753925538 -0.5796428275 0.8162588690
-0.3747601998 -0.5794235990 0.8174103569
-0.3564299819 -0.5730687630 0.8507888475
-0.3558395784 -0.5728640782 0.8518639454
-0.3552504579 -0.5726598382 0.8529367069
-0.3546626163 -0.5724560415 0.8540071396
-0.3540760495 -0.5722526868 0.8550752512
-0.3534907532 -0.5720497726 0.8561410490
-0.3529067233 -0.5718472974 0.8572045408
-0.3523239558 -0.5716452599 0.8582657338
-0.3517424465 -0.5714436586 0.8593246356
-0.3772639128 -0.5798653889 0.8140713542
-0.3766280204 -0.5796454146 0.8152279086
-0.3759935613 -0.5794259361 0.8163818561
-0.3753605307 -0.5792069518 0.8175332056
-0.3570107008 -0.5728591934 0.8509076829
-0.3564196656 -0.5726547365 0.8519826515
-0.3558299148 -0.5724507240 0.8530552841
-0.3552414443 -0.5722471543 0.8541255881
-0.3546542498 -0.5720440260 0.8551935712
-0.3540683273 -0.5718413378 0.8562592409
-0.3534836726 -0.5716390882 0.8573226048
-0.3529002815 -0.5714372756 0.8583836702
-0.3523181501 -0.5712358989 0.8594424447
-0.3778662781 -0.5796480075 0.8141946192
-0.3772297060 -0.5794282785 0.8153510345
-0.3765945688 -0.5792090447 0.8165048433
-0.3575914197 -0.5726496237 0.8510265183
-0.3569997528 -0.5724453948 0.8521013577
-0.3564093717 -0.5722416097 0.8531738612
-0.3558202722 -0.5720382670 0.8542440365
-0.3552324502 -0.5718353653 0.8553118912
-0.3546459014 -0.5716329030 0.8563774328
-0.3540606218 -0.5714308789 0.8574406687
-0.3534766073 -0.5712292914 0.8585016066
-0.3528938537 -0.5710281391 0.8595602538
-0.2984639402 -0.5522402680 0.9584392223
-0.3791073362 -0.5796506063 0.8131589929
-0.3784686433 -0.5794306261 0.8143178842
-0.3778313916 -0.5792111423 0.8154741604
-0.3771955763 -0.5789921533 0.8166278304
-0.3581721386 -0.5724400540 0.8511453537
-0.3575798400 -0.5722360531 0.8522200638
-0.3569888286 -0.5720324955 0.8532924383
-0.3563991001 -0.5718293798 0.8543624849
-0.3558106505 -0.5716267045 0.8554302112
-0.3552234755 -0.5714244682 0.8564956246
-0.3546375711 -0.5712226696 0.8575587327
-0.3540529330 -0.5710213071 0.8586195430
-0.3534695572 -0.5708203794 0.8596780629
-0.3056669092 -0.5543560737 0.9464146999
-0.2985109504 -0.5518914008 0.9593989973
-0.3797103826 -0.5794329791 0.8132823972
-0.3790710085 -0.5792132447 0.8144411492
-0.3784330772 -0.5789940062 0.8155972864
-0.3777965838 -0.5787752618 0.8167508176
-0.3593470805 -0.5724347016 0.8501872654
-0.3587528575 -0.5722304844 0.8512641891
-0.3581599272 -0.5720267114 0.8523387699
-0.3575682855 -0.5718233812 0.8534110155
-0.3569779281 -0.5716204925 0.8544809334
-0.3563888509 -0.5714180437 0.8555485312
-0.3558010497 -0.5712160334 0.8566138165
-0.3552145203 -0.5710144603 0.8576767967
-0.3546292587 -0.5708133228 0.8587374794
-0.3540452608 -0.5706126196 0.8597958719
-0.3066767296 -0.5543334266 0.9456429212
-0.3052242919 -0.5538342658 0.9482752066
-0.3809549335 -0.5794353374 0.8122445657
-0.3803134290 -0.5792153519 0.8134058016
-0.3796733738 -0.5789958633 0.8145644142
-0.3790347628 -0.5787768701 0.8157204123
-0.3599284325 -0.5722249035 0.8503062303
-0.3593335764 -0.5720209147 0.8513830245
-0.3587400144 -0.5718173697 0.8524574760
-0.3581477423 -0.5716142670 0.8535295926
-0.3575567560 -0.5714116052 0.8545993818
-0.3569670512 -0.5712093829 0.8556668512
-0.3563786238 -0.5710075987 0.8567320083
-0.3557914696 -0.5708062510 0.8577948607
-0.3552055845 -0.5706053386 0.8588554158
-0.3815586626 -0.5792174638 0.8123681098
-0.3809164754 -0.5789977246 0.8135292060
-0.3802757390 -0.5787784819 0.8146876792
-0.3796364484 -0.5785597339 0.8158435382
-0.3605097844 -0.5720151053 0.8504251953
-0.3599142953 -0.5718113450 0.8515018599
-0.3593201016 -0.5716080280 0.8525761822
-0.3587271992 -0.5714051528 0.8536481698
-0.3581355839 -0.5712027180 0.8547178302
-0.3575452516 -0.5710007221 0.8557851712
-0.3569561979 -0.5707991639 0.8568502002
-0.3563684188 -0.5705980417 0.8579129247
-0.3557819102 -0.5703973543 0.8589733522
-0.3828067188 -0.5792195805 0.8113280658
-0.3821623917 -0.5789995902 0.8124916539
-0.3815195218 -0.5787800974 0.8136526104
-0.3808781042 -0.5785611005 0.8148109441
-0.3610911364 -0.5718053072 0.8505441602
-0.3604950142 -0.5716017753 0.8516206953
-0.3599001888 -0.5713986863 0.8526948883
-0.3593066561 -0.5711960385 0.8537667469
-0.3587144119 -0.5709938307 0.8548362787
-0.3581234519 -0.5707920614 0.8559034912
-0.3575337720 -0.5705907291 0.8569683921
-0.3569453681 -0.5703898324 0.8580309887
-0.3563582359 -0.5701893700 0.8590912886
-0.3029514645 -0.5519548880 0.9555383904
-0.3015254062 -0.5514679940 0.9581137040
-0.3834111322 -0.5790014600 0.8114517499
-0.3827661208 -0.5787817166 0.8126151980
-0.3821225682 -0.5785624702 0.8137760147
-0.3814804695 -0.5783437191 0.8149342091
-0.3622705462 -0.5717992562 0.8495843702
-0.3616724884 -0.5715955091 0.8506631251
-0.3610757330 -0.5713922057 0.8517395307
-0.3604802760 -0.5711893445 0.8528135944
-0.3598861130 -0.5709869243 0.8538853240
-0.3592932398 -0.5707849434 0.8549547271
-0.3587016523 -0.5705834006 0.8560218112
-0.3581113462 -0.5703822943 0.8570865839
-0.3575223173 -0.5701816232 0.8581490527
-0.3569345617 -0.5699813857 0.8592092250
-0.3097549002 -0.5539081543 0.9443101826
-0.3029942896 -0.5516049402 0.9565047262
-0.3840155456 -0.5787833394 0.8115754340
-0.3833698500 -0.5785638430 0.8127387420
-0.3827256146 -0.5783448430 0.8138994191
-0.3628525326 -0.5715892291 0.8497034649
-0.3622538403 -0.5713857109 0.8507820901
-0.3616564519 -0.5711826360 0.8518583660
-0.3610603632 -0.5709800028 0.8529323005
-0.3604655699 -0.5707778100 0.8540039012
-0.3598720678 -0.5705760562 0.8550731756
-0.3592798526 -0.5703747398 0.8561401312
-0.3586889203 -0.5701738595 0.8572047758
-0.3580992666 -0.5699734139 0.8582671167
-0.3575108874 -0.5697734015 0.8593271614
-0.3044689034 -0.5517424206 0.9548894713
-0.3035133928 -0.5514176064 0.9566109529
-0.3852678058 -0.5787849659 0.8105333104
-0.3846199590 -0.5785652189 0.8116991181
-0.3839735791 -0.5783459694 0.8128622861
-0.3833286611 -0.5781272158 0.8140228235
-0.3634345190 -0.5713792021 0.8498225597
-0.3628351923 -0.5711759128 0.8509010550
-0.3622371708 -0.5709730663 0.8519772014
-0.3616404504 -0.5707706611 0.8530510067
-0.3610450268 -0.5705686958 0.8541224783
-0.3604508957 -0.5703671689 0.8551916240
-0.3598580530 -0.5701660790 0.8562584513
-0.3592664944 -0.5699654247 0.8573229676
-0.3586762158 -0.5697652046 0.8583851807
-0.3580872131 -0.5695654172 0.8594450978
-0.3112985466 -0.5536948879 0.9436418385
-0.3026046742 -0.5507459610 0.9592865613
-0.3858729050 -0.5785665979 0.8106571349
-0.3852243724 -0.5783470984 0.8118228022
-0.3845773082 -0.5781280958 0.8129858302
-0.3640165054 -0.5711691750 0.8499416545
-0.3634165442 -0.5709661147 0.8510200199
-0.3628178897 -0.5707634967 0.8520960368
-0.3622205376 -0.5705613194 0.8531697128
-0.3616244837 -0.5703595816 0.8542410554
-0.3610297236 -0.5701582816 0.8553100724
-0.3604362533 -0.5699574182 0.8563767713
-0.3598440685 -0.5697569899 0.8574411595
-0.3592531651 -0.5695569953 0.8585032447
-0.3586635389 -0.5693574329 0.8595630342
-0.3050299007 -0.5512048225 0.9559637111
-0.3871286975 -0.5785679801 0.8096127843
-0.3864780041 -0.5783482299 0.8107809593
-0.3858287857 -0.5781289778 0.8119464863
-0.3851810373 -0.5779102222 0.8131093743
-0.3652003998 -0.5711624224 0.8489801576
-0.3645984918 -0.5709591479 0.8500607492
-0.3639978962 -0.5707563166 0.8511389849
-0.3633986086 -0.5705539270 0.8522148722
-0.3628006248 -0.5703519777 0.8532884189
-0.3622039405 -0.5701504673 0.8543596326
-0.3616085516 -0.5699493944 0.8554285209
-0.3610144537 -0.5697487575 0.8564950913
-0.3604216427 -0.5695485551 0.8575593514
-0.3598301144 -0.5693487860 0.8586213086
-0.3128452458 -0.5534811998 0.9429721726
-0.3123521368 -0.5533146686 0.9438574399
-0.3877344841 -0.5783493640 0.8097367494
-0.3870831033 -0.5781298619 0.8109047837
-0.3864331991 -0.5779108573 0.8120701704
-0.3657830220 -0.5709521658 0.8490993825
-0.3651804782 -0.5707491208 0.8501798440
-0.3645792482 -0.5705465184 0.8512579498
-0.3639793275 -0.5703443573 0.8523337076
-0.3633807120 -0.5701426360 0.8534071250
-0.3627833974 -0.5699413531 0.8544782097
-0.3621873795 -0.5697405071 0.8555469693
-0.3615926540 -0.5695400967 0.8566134113
-0.3609992168 -0.5693401203 0.8576775432
-0.3604070636 -0.5691405767 0.8587393726
-0.3075126784 -0.5513162401 0.9535878283
-0.3889938219 -0.5783505007 0.8086901645
-0.3883402706 -0.5781307479 0.8098607145
-0.3876882025 -0.5779114938 0.8110286082
-0.3870376125 -0.5776927368 0.8121938545
-0.3657624646 -0.5705390937 0.8502989388
-0.3651606001 -0.5703367203 0.8513769148
-0.3645600464 -0.5701347876 0.8524525430
-0.3639607992 -0.5699332943 0.8535258312
-0.3633628543 -0.5697322389 0.8545967869
-0.3627662074 -0.5695316199 0.8556654177
-0.3621708544 -0.5693314359 0.8567317313
-0.3143950068 -0.5532670887 0.9423011811
-0.3134057271 -0.5529344492 0.9440730413
-0.3896002974 -0.5781316360 0.8088142706
-0.3889460572 -0.5779121318 0.8099846796
-0.3882933017 -0.5776931258 0.8111524326
-0.3876420259 -0.5774746162 0.8123175386
-0.3663444510 -0.5703290666 0.8504180335
-0.3657419521 -0.5701269222 0.8514958797
-0.3651407653 -0.5699252180 0.8525713784
-0.3645408864 -0.5697239526 0.8536445373
-0.3144271938 -0.5529103068 0.9432958945
-0.3090390319 -0.5511025245 0.9529350970
-0.3908631933 -0.5781325260 0.8077654437
-0.3902067729 -0.5779127712 0.8089383766
-0.3895518438 -0.5776935157 0.8101086447
-0.3888984009 -0.5774747578 0.8112762571
-0.3164459809 -0.5532193201 0.9407387486
-0.3095606741 -0.5509142745 0.9530418432
-0.3914703593 -0.5779134121 0.8078896911
-0.3908132484 -0.5776939065 0.8090624827
-0.3901576303 -0.5774748997 0.8102326098
-0.3895035001 -0.5772563898 0.8114000815
-0.3154818259 -0.5525297115 0.9435117092
-0.3927368264 -0.5779140545 0.8068386149
-0.3920775253 -0.5776942982 0.8080139385
-0.3914197239 -0.5774750418 0.8091865888
-0.3907634169 -0.5772562836 0.8103565750
-0.3180039321 -0.5530043113 0.9400635415
-0.3160091419 -0.5523394139 0.9436196165
-0.3120665296 -0.5510252742 0.9506480374
-0.3933446845 -0.5776946908 0.8069630039
-0.3926846913 -0.5774751843 0.8081381859
-0.3920261994 -0.5772561771 0.8093106949
-0.3913692035 -0.5770376675 0.8104805401
-0.3185333420 -0.5528132580 0.9401718773
-0.3180326357 -0.5526467285 0.9410634337
-0.3175329215 -0.5524805291 0.9419532234
-0.3125897070 -0.5508364701 0.9507550978
-0.3939525426 -0.5774753272 0.8070873929
-0.3932918573 -0.5772560704 0.8082624333
-0.3926326749 -0.5770373124 0.8094348010
-0.3190627520 -0.5526222046 0.9402802131
-0.3131128844 -0.5506476660 0.9508621582
-0.3952232874 -0.5774754703 0.8060342017
-0.3945604006 -0.5772559635 0.8072117819
-0.3938990233 -0.5770369566 0.8083866807
-0.3932391504 -0.5768184477 0.8095589071
-0.3200949157 -0.5525976320 0.9394954359
-0.3958318391 -0.5772558564 0.8061587327
-0.3951682587 -0.5770365999 0.8073361709
-0.3945061893 -0.5768178427 0.8085109281
-0.3938456259 -0.5765995830 0.8096830132
-0.3211291327 -0.5525730105 0.9387090975
-0.3206248517 -0.5524063888 0.9396038794
-0.3201215720 -0.5522400980 0.9404968847
-0.3146507331 -0.5504324543 0.9502041862
-0.3141592392 -0.5502700577 0.9510762790
-0.3971061827 -0.5772557489 0.8051032773
-0.3964403908 -0.5770362424 0.8062832637
-0.3957761168 -0.5768172362 0.8074605600
-0.3951133553 -0.5765987288 0.8086351754
-0.3216595959 -0.5523815771 0.9388176488
-0.3211547878 -0.5522151457 0.9397123228
-0.3151744242 -0.5502434648 0.9503113517
-0.3977154297 -0.5770358841 0.8052279506
-0.3970489426 -0.5768166284 0.8064077946
-0.3963839749 -0.5765978726 0.8075849490
-0.3957205213 -0.5763796149 0.8087594228
-0.3237121150 -0.5526908576 0.9362317915
-0.3216847239 -0.5520239025 0.9398207663
-0.3166860659 -0.5503794834 0.9486696049
-0.3156981154 -0.5500544753 0.9504185172
-0.3989933852 -0.5770355249 0.8041702234
-0.3983246766 -0.5768160192 0.8053526238
-0.3976574943 -0.5765970144 0.8065323256
-0.3969918329 -0.5763785089 0.8077093380
-0.3242441659 -0.5524988512 0.9363406678
-0.3232273921 -0.5521650919 0.9381385119
-0.3167158111 -0.5500276443 0.9496521915
-0.3996033290 -0.5768154086 0.8042950393
-0.3989339236 -0.5765961543 0.8054772970
-0.3982660460 -0.5763774004 0.8066568565
-0.3975996910 -0.5761591453 0.8078337270
-0.3247762168 -0.5523068448 0.9364495440
-0.3242667929 -0.5521399902 0.9373492535
-0.3237583835 -0.5519734679 0.9382471713
-0.4008849096 -0.5768147966 0.8032350327
-0.4002132728 -0.5765952922 0.8044198551
-0.3995431706 -0.5763762894 0.8056019703
-0.3988745978 -0.5761577865 0.8067813875
-0.3258192405 -0.5522818346 0.9356570224
-0.4014955519 -0.5765944282 0.8033599915
-0.4008232166 -0.5763751759 0.8045446709
-0.4001524176 -0.5761564246 0.8057266435
-0.3994831495 -0.5759381725 0.8069059184
-0.3258403187 -0.5519228321 0.9366672965
-0.4021061941 -0.5763740598 0.8034849502
-0.4014331604 -0.5761550595 0.8046694867
-0.4007616646 -0.5759365597 0.8058513167
-0.3263723696 -0.5517308257 0.9367761727
-0.3253513577 -0.5513985958 0.9385731495
-0.4033921131 -0.5763729411 0.8024227998
-0.4027168363 -0.5761536914 0.8036099089
-0.4020431042 -0.5759349432 0.8047943026
-0.4013709115 -0.5757166948 0.8059759899
-0.3274169874 -0.5517052401 0.9359839773
-0.3269044206 -0.5515388193 0.9368850489
-0.3203329321 -0.5494051800 0.9484374580
-0.4040034554 -0.5761523201 0.8025479018
-0.4033274786 -0.5759333230 0.8037348677
-0.4026530480 -0.5757148268 0.8049191184
-0.3279495697 -0.5515130420 0.9360929623
-0.3274364715 -0.5513468129 0.9369939252
-0.3228642501 -0.5498655443 0.9450224114
-0.3213582072 -0.5493776296 0.9476669126
-0.3203591182 -0.5490539534 0.9494212399
-0.4052930278 -0.5761509457 0.8014834569
-0.4046147977 -0.5759316991 0.8026730038
-0.4039381208 -0.5757129546 0.8038598264
-0.4032629918 -0.5754947105 0.8050439342
-0.3300292146 -0.5518209517 0.9334885562
-0.3289968084 -0.5514872131 0.9352992919
-0.3284821520 -0.5513208438 0.9362019472
-0.3218839636 -0.5491878947 0.9477745007
-0.4059050717 -0.5759300715 0.8016087025
-0.4052261399 -0.5757110781 0.8027981058
-0.4045487630 -0.5754925862 0.8039847852
-0.4038729356 -0.5752745941 0.8051687500
-0.3300461431 -0.5514613326 0.9345040331
-0.3295299231 -0.5512948229 0.9354083858
-0.3229117812 -0.5491601027 0.9470025407
-0.4071983108 -0.5759284401 0.8005419554
-0.4065171156 -0.5757091972 0.8017339481
-0.4058374822 -0.5754904570 0.8029232078
-0.4051594053 -0.5752722178 0.8041097439
-0.3305797913 -0.5512687498 0.9346132362
-0.3295473165 -0.5509364475 0.9364199172
-0.3290326243 -0.5507707937 0.9373205538
-0.3239416294 -0.5491322557 0.9462290555
-0.3234380564 -0.5489701806 0.9471102350
-0.4078110579 -0.5757073121 0.8006673449
-0.4071291595 -0.5754883230 0.8018591937
-0.4064488245 -0.5752698360 0.8030483098
-0.4057700475 -0.5750518494 0.8042347027
-0.3311134395 -0.5510761670 0.9347224393
-0.3300798988 -0.5507442494 0.9365289021
-0.3249735142 -0.5491043536 0.9454540406
-0.4091079772 -0.5757054226 0.7995982878
-0.4084238051 -0.5754861840 0.8007927344
-0.4077412034 -0.5752674488 0.8019844392
-0.4070601667 -0.5750492150 0.8031734118
-0.3332067859 -0.5513833793 0.9321086783
-0.3326858439 -0.5512164469 0.9330181532
-0.3321659455 -0.5510498488 0.9339258061
-0.3316470877 -0.5508835842 0.9348316424
-0.3311292672 -0.5507176520 0.9357356676
-0.3260074418 -0.5490763963 0.9446774915
-0.3244906069 -0.5485903365 0.9473256237
-0.4097214292 -0.5754840402 0.7997238215
-0.4090365522 -0.5752650560 0.8009181239
-0.4083532473 -0.5750465745 0.8021096848
-0.4076715090 -0.5748285940 0.8032985138
-0.3332205622 -0.5510234779 0.9331275753
-0.3327001283 -0.5508570731 0.9340351185
-0.3260281463 -0.5487237583 0.9456698552
-0.3250168821 -0.5484004144 0.9474333180
-0.4103348813 -0.5752626578 0.7998493553
-0.4096492994 -0.5750439280 0.8010435134
-0.4089652912 -0.5748257003 0.8022349304
-0.3342772960 -0.5509970539 0.9323277421
-0.3285921316 -0.5491832448 0.9422302575
-0.3270631177 -0.5486954243 0.9448935197
-0.4116362008 -0.5752602540 0.7987781249
-0.4109483333 -0.5750412754 0.7999748890
-0.4102620465 -0.5748228000 0.8011689028
-0.4095773351 -0.5746048261 0.8023601760
-0.3358608085 -0.5511375979 0.9306134971
-0.3342899989 -0.5506375398 0.9333464194
-0.3337684937 -0.5504715217 0.9342537435
-0.3291215416 -0.5489921914 0.9423385933
-0.4115617853 -0.5748198930 0.8001004227
-0.4108747937 -0.5746016720 0.8012942923
-0.3353478061 -0.5506107286 0.9325468059
-0.3296509516 -0.5488011381 0.9424469291
-0.3291392192 -0.5486385877 0.9433362292
-0.3281187936 -0.5483144523 0.9451095480
-0.3276100943 -0.5481528653 0.9459935771
-0.3374602635 -0.5509174630 0.9299185800
-0.3369334719 -0.5507504955 0.9308330016
-0.3364077388 -0.5505838634 0.9317455857
-0.3306936370 -0.5487727684 0.9416643050
-0.3296681041 -0.5484477239 0.9434444575
-0.3379971351 -0.5507237169 0.9300284427
-0.3369435317 -0.5503905066 0.9318552276
-0.3312235731 -0.5485815252 0.9417727485
-0.3307097715 -0.5484190315 0.9426636007
-0.3296852228 -0.5480950099 0.9444400093
-0.3385340067 -0.5505299708 0.9301383054
-0.3374793245 -0.5501971499 0.9319648696
-0.3369535713 -0.5500312405 0.9328754017
-0.3364288724 -0.5498656638 0.9337841078
-0.3322688600 -0.5485529088 0.9409886753
-0.3317535091 -0.5483902820 0.9418811919
-0.3307258740 -0.5480659962 0.9436609142
-0.3396003548 -0.5505029431 0.9293322357
-0.3390708784 -0.5503362247 0.9302481682
-0.3385424669 -0.5501698418 0.9311622582
-0.3327993232 -0.5483614754 0.9410972266
-0.3317685915 -0.5480369248 0.9428802723
-0.3401377675 -0.5503090017 0.9294422092
-0.3396077500 -0.5501424787 0.9303580309
-0.3390787986 -0.5499762905 0.9312720105
-0.3343656849 -0.5484955049 0.9394158401
-0.3338472200 -0.5483326114 0.9403117001
-0.3328133813 -0.5480077957 0.9420980789
-0.3312703055 -0.5475229857 0.9447643727
-0.3406751801 -0.5501150604 0.9295521826
-0.3396151303 -0.5497827393 0.9313817627
-0.3380330274 -0.5492867567 0.9341123740
-0.3343782113 -0.5481409874 0.9404203596
-0.3333433173 -0.5478165525 0.9422065223
-0.3328274114 -0.5476548181 0.9430969439
-0.3412125928 -0.5499211191 0.9296621560
-0.3401514620 -0.5495891881 0.9314915149
-0.3343907128 -0.5477871751 0.9414228806
-0.3338732534 -0.5476253093 0.9423149658
-0.3428165077 -0.5500600578 0.9279356036
-0.3422827186 -0.5498934499 0.9288547928
-0.3417500055 -0.5497271777 0.9297721294
-0.3370034685 -0.5482456735 0.9379457066
-0.3359602468 -0.5479200598 0.9397421432
-0.3354401941 -0.5477577393 0.9406376784
-0.3349211760 -0.5475957417 0.9415314320
-0.3338862314 -0.5472727115 0.9433136155
-0.3444269141 -0.5501995589 0.9262020633
-0.3433550057 -0.5498657248 0.9280457991
-0.3428206734 -0.5496993129 0.9289648772
-0.3422874181 -0.5495332364 0.9298821029
-0.3364917675 -0.5477282448 0.9398509109
-0.3349331255 -0.5472428229 0.9425318527
-0.3449665018 -0.5500048326 0.9263124818
-0.3444294604 -0.5498379437 0.9272351699
-0.3438935037 -0.5496713918 0.9281559947
-0.3433586282 -0.5495051759 0.9290749616
-0.3428248308 -0.5493392951 0.9299920763
-0.3422921082 -0.5491737482 0.9309073445
-0.3407003567 -0.5486791016 0.9336421250
-0.3375454391 -0.5476986914 0.9390625735
-0.3455060895 -0.5498101063 0.9264229003
-0.3449685028 -0.5496434142 0.9273454769
-0.3444320017 -0.5494770588 0.9282661902
-0.3433622435 -0.5491453537 0.9301020497
-0.3417656672 -0.5486502957 0.9328420052
-0.3386012153 -0.5476690790 0.9382726615
-0.3380774900 -0.5475066850 0.9391714498
-0.3375548087 -0.5473446147 0.9400684463
-0.3465848996 -0.5497822126 0.9256089853
-0.3460456773 -0.5496153800 0.9265333189
-0.3449704997 -0.5492827257 0.9283763857
-0.3444345378 -0.5491169020 0.9292951303
-0.3391337976 -0.5474768809 0.9383816465
-0.3380863294 -0.5471527997 0.9401772141
-0.3370430289 -0.5468300081 0.9419656373
-0.3471250339 -0.5495872890 0.9257195157
-0.3460465874 -0.5492543553 0.9275660907
-0.3407191068 -0.5476096764 0.9366880948
-0.3401922171 -0.5474470171 0.9375902641
-0.3396663799 -0.5472846827 0.9384906315
-0.3391415919 -0.5471226722 0.9393892022
-0.3471248528 -0.5492259275 0.9267541559
-0.3465856298 -0.5490598259 0.9276763976
-0.3460474957 -0.5488940597 0.9285967768
-0.3455104474 -0.5487286280 0.9295152990
-0.3412527550 -0.5474170936 0.9367972979
-0.3401989622 -0.5470924846 0.9385996164
-0.3396736428 -0.5469306659 0.9394980785
-0.3391493706 -0.5467691697 0.9403947495
-0.3492903197 -0.5495309360 0.9240869537
-0.3482053024 -0.5491974420 0.9259405764
-0.3476644405 -0.5490312012 0.9268645744
-0.3428454927 -0.5475500356 0.9350971727
-0.3417864032 -0.5472245108 0.9369065010
-0.3402056937 -0.5467386595 0.9396069547
-0.3509220822 -0.5496700702 0.9223367706
-0.3492879429 -0.5491688988 0.9251253471
-0.3433802110 -0.5473570666 0.9352065948
-0.3423200513 -0.5470319280 0.9370157041
-0.3417915612 -0.5468698463 0.9379175459
-0.3412641267 -0.5467080883 0.9388175864
-0.3509180428 -0.5493071561 0.9233790520
-0.3503727810 -0.5491402977 0.9243084631
-0.3498286248 -0.5489737777 0.9252359896
-0.3487436160 -0.5486417486 0.9270854115
-0.3482027567 -0.5484762375 0.9280073183
-0.3439149294 -0.5471640976 0.9353160169
-0.3433837829 -0.5470015587 0.9362213680
-0.3423246759 -0.5466774560 0.9380266398
-0.3417967090 -0.5465158901 0.9389265713
-0.3525547805 -0.5494459763 0.9216256459
-0.3503693067 -0.5487786566 0.9253466320
-0.3498257052 -0.5486126715 0.9262721675
-0.3444496477 -0.5469711286 0.9354254390
-0.3439179657 -0.5468087830 0.9363306805
-0.3433873477 -0.5466467624 0.9372341102
-0.3428577906 -0.5464850657 0.9381357337
-0.3520016038 -0.5489161209 0.9236007865
-0.3514552422 -0.5487496594 0.9245299725
-0.3503658395 -0.5484177480 0.9263826978
-0.3498227915 -0.5482522961 0.9273062485
-0.3455176522 -0.5469406373 0.9346279122
-0.3449843661 -0.5467781595 0.9355348610
-0.3444521484 -0.5466160073 0.9364399929
-0.3753696708 -0.5556598775 0.8849351743
-0.3747754705 -0.5554792385 0.8859445807
-0.3741825259 -0.5552989812 0.8869518537
-0.3536405476 -0.5490541449 0.9218478319
-0.3530914081 -0.5488872045 0.9227806905
-0.3525433843 -0.5487206033 0.9237116537
-0.3519964729 -0.5485543402 0.9246407273
-0.3514506705 -0.5483884143 0.9255679168
-0.3465878027 -0.5469100848 0.9338287828
-0.3460529072 -0.5467474746 0.9347374441
-0.3455190845 -0.5465851905 0.9356442831
-0.3449863311 -0.5464232316 0.9365493054
-0.3759344006 -0.5554560780 0.8850507378
-0.3753396028 -0.5552756545 0.8860600219
-0.3747460621 -0.5550956124 0.8870671729
-0.3741537746 -0.5549159503 0.8880721975
-0.3735627361 -0.5547366672 0.8890751026
-0.3729729429 -0.5545577617 0.8900758947
-0.3723843909 -0.5543792328 0.8910745806
-0.3541834312 -0.5488582293 0.9219589248
-0.3536337396 -0.5486914881 0.9228916705
-0.3530851648 -0.5485250857 0.9238225210
-0.3525377035 -0.5483590210 0.9247514820
-0.3465881623 -0.5465543119 0.9348469760
-0.3460538028 -0.5463922215 0.9357537052
-0.3455205139 -0.5462304559 0.9366586179
-0.3449882923 -0.5460690140 0.9375617195
-0.3764991304 -0.5552522785 0.8851663012
-0.3759037352 -0.5550720706 0.8861754631
-0.3753095984 -0.5548922436 0.8871824921
-0.3747167159 -0.5547127962 0.8881873950
-0.3741250839 -0.5545337273 0.8891901786
-0.3735346982 -0.5543550356 0.8901908495
-0.3729455551 -0.5541767200 0.8911894144
-0.3723576506 -0.5539987793 0.8921858800
-0.3536269453 -0.5483295681 0.9239333882
-0.3530789342 -0.5481637019 0.9248622367
-0.3481964374 -0.5466859195 0.9331377983
-0.3476593884 -0.5465233712 0.9340480667
-0.3471234174 -0.5463611492 0.9349565079
-0.3465885212 -0.5461992525 0.9358631273
-0.3460546966 -0.5460376801 0.9367679304
-0.3776611163 -0.5552288529 0.8842706857
-0.3770638601 -0.5550484790 0.8852818647
-0.3764678676 -0.5548684867 0.8862909043
-0.3758731346 -0.5546888748 0.8872978113
-0.3752796573 -0.5545096421 0.8883025925
-0.3746874316 -0.5543307874 0.8893052546
-0.3740964536 -0.5541523095 0.8903058043
-0.3735067194 -0.5539742072 0.8913042483
-0.3729182250 -0.5537964794 0.8923005931
-0.3717449401 -0.5534421424 0.8942870120
-0.3711601418 -0.5532655308 0.8952770992
-0.3705765679 -0.5530892890 0.8962651135
-0.3699942144 -0.5529134157 0.8972510616
-0.3547184025 -0.5483000552 0.9231136305
-0.3487327691 -0.5464923683 0.9332475505
-0.3481951812 -0.5463300145 0.9341577087
-0.3476586724 -0.5461679865 0.9350660398
-0.3782264448 -0.5550248373 0.8843863717
-0.3776285899 -0.5548446795 0.8853974282
-0.3770319999 -0.5546649027 0.8864063455
-0.3764366708 -0.5544855060 0.8874131305
-0.3758425986 -0.5543064880 0.8884177900
-0.3752497793 -0.5541278475 0.8894203306
-0.3746582089 -0.5539495834 0.8904207591
-0.3740678836 -0.5537716945 0.8914190821
-0.3734787993 -0.5535941795 0.8924153062
-0.3723043384 -0.5532402669 0.8944014845
-0.3717189539 -0.5530638668 0.8953914517
-0.3711347950 -0.5528878361 0.8963793463
-0.3705518578 -0.5527121735 0.8973651749
-0.3699701385 -0.5525368779 0.8983489439
-0.3693896332 -0.5523619482 0.8993306598
-0.3688103382 -0.5521873831 0.9003103290
-0.3563645536 -0.5484369643 0.9213578967
-0.3558120820 -0.5482704822 0.9222922037
-0.3552607340 -0.5481043388 0.9232246105
-0.3547105063 -0.5479385329 0.9241551227
-0.3498083111 -0.5464613030 0.9324454225
-0.3492691008 -0.5462988171 0.9333573027
-0.3481939275 -0.5459748238 0.9351755717
-0.3787917732 -0.5548208218 0.8845020577
-0.3781933197 -0.5546408799 0.8855129916
-0.3775961323 -0.5544613188 0.8865217867
-0.3770002071 -0.5542821372 0.8875284497
-0.3764055400 -0.5541033338 0.8885329875
-0.3758121270 -0.5539249076 0.8895354066
-0.3752199643 -0.5537468573 0.8905357139
-0.3746290478 -0.5535691817 0.8915339159
-0.3740393736 -0.5533918796 0.8925300194
-0.3728637366 -0.5530383914 0.8945159569
-0.3722777660 -0.5528622029 0.8955058042
-0.3716930222 -0.5526863833 0.8964935791
-0.3711095012 -0.5525109313 0.8974792883
-0.3705271994 -0.5523358460 0.8984629381
-0.3699461128 -0.5521611260 0.8994445350
-0.3693662377 -0.5519867703 0.9004240854
-0.3687875703 -0.5518127777 0.9014015958
-0.3682101067 -0.5516391471 0.9023770725
-0.3580174284 -0.5485744326 0.9195949915
-0.3574621436 -0.5484074707 0.9205330030
-0.3569079904 -0.5482408490 0.9214691028
-0.3563549655 -0.5480745665 0.9224032967
-0.3558030655 -0.5479086223 0.9233355905
-0.3552522868 -0.5477430153 0.9242659899
-0.3508860209 -0.5464301750 0.9316416777
-0.3503451828 -0.5462675569 0.9325552852
-0.3498054325 -0.5461052658 0.9334670550
-0.3492667669 -0.5459433009 0.9343769926
-0.3481926763 -0.5456203455 0.9361913935
-0.3793571017 -0.5546168062 0.8846177436
-0.3787580495 -0.5544370804 0.8856285551
-0.3781602647 -0.5542577349 0.8866372279
-0.3775637433 -0.5540787684 0.8876437690
-0.3769684813 -0.5539001797 0.8886481850
-0.3763744747 -0.5537219677 0.8896504826
-0.3757817196 -0.5535441312 0.8906506687
-0.3751902120 -0.5533666689 0.8916487497
-0.3734231349 -0.5528365159 0.8946304294
-0.3728365781 -0.5526605389 0.8956201567
-0.3722512493 -0.5524849304 0.8966078119
-0.3716671446 -0.5523096891 0.8975934016
-0.3710842603 -0.5521348140 0.8985769322
-0.3705025924 -0.5519603038 0.8995584102
-0.3699221372 -0.5517861574 0.9005378419
-0.3693428909 -0.5516123737 0.9015152339
-0.3687648497 -0.5514389516 0.9024905923
-0.3681880099 -0.5512658899 0.9034639237
-0.3591189518 -0.5485450192 0.9187666095
-0.3585619751 -0.5483779168 0.9197064248
-0.3574514272 -0.5480447337 0.9215803090
-0.3568978491 -0.5478786509 0.9225143897
-0.3557940673 -0.5475474977 0.9243768572
-0.3519659049 -0.5463989843 0.9308363114
-0.3514234335 -0.5462362337 0.9317516512
-0.3508820544 -0.5460738108 0.9326651479
-0.3503417642 -0.5459117146 0.9335768072
-0.3498025597 -0.5457499441 0.9344866346
-0.3492644376 -0.5455884984 0.9353946355
-0.3487273946 -0.5454273764 0.9363008156
-0.3799224301 -0.5544127906 0.8847334296
-0.3793227792 -0.5542332809 0.8857441185
-0.3787243970 -0.5540541509 0.8867526691
-0.3781272795 -0.5538753996 0.8877590882
-0.3775314227 -0.5536970256 0.8887633825
-0.3769368225 -0.5535190278 0.8897655586
-0.3763434750 -0.5533414051 0.8907656235
-0.3757513762 -0.5531641561 0.8917635836
-0.3745709093 -0.5528107749 0.8937532161
-0.3739825332 -0.5526346404 0.8947449018
-0.3733953902 -0.5524588750 0.8957345092
-0.3728094764 -0.5522834775 0.8967220447
-0.3722247881 -0.5521084469 0.8977075149
-0.3716413212 -0.5519337820 0.8986909263
-0.3710590720 -0.5517594816 0.8996722854
-0.3704780367 -0.5515855445 0.9006515984
-0.3698982115 -0.5514119698 0.9016288719
-0.3693195927 -0.5512387561 0.9026041121
-0.3687421764 -0.5510659025 0.9035773255
-0.3585501259 -0.5480148399 0.9207556423
-0.3579948640 -0.5478486183 0.9216915152
-0.3574407327 -0.5476827352 0.9226254826
-0.3563358478 -0.5473519801 0.9244877244
-0.3519608462 -0.5460422923 0.9318616246
-0.3514189260 -0.5458800647 0.9327750106
-0.3508780959 -0.5457181634 0.9336865594
-0.3503383525 -0.5455565874 0.9345962765
-0.3497996926 -0.5453953357 0.9355041674
-0.3804877585 -0.5542087751 0.8848491156
-0.3798875090 -0.5540294814 0.8858596820
-0.3792885294 -0.5538505670 0.8868681103
-0.3786908158 -0.5536720308 0.8878744074
-0.3780943640 -0.5534938715 0.8888785799
-0.3774991702 -0.5533160879 0.8898806347
-0.3769052303 -0.5531386789 0.8908805782
-0.3763125405 -0.5529616433 0.8918784174
-0.3745419315 -0.5524327649 0.8948593743
-0.3739542023 -0.5522572110 0.8958488617
-0.3733677036 -0.5520820247 0.8968362775
-0.3727824315 -0.5519072047 0.8978216283
-0.3721983821 -0.5517327500 0.8988049205
-0.3716155516 -0.5515586594 0.8997861605
-0.3710339363 -0.5513849317 0.9007653549
-0.3704535322 -0.5512115658 0.9017425099
-0.3607683903 -0.5483186276 0.9180481937
-0.3596510683 -0.5479848851 0.9199292914
-0.3590941170 -0.5478185245 0.9208669619
-0.3585383008 -0.5476525030 0.9218027214
-0.3535864679 -0.5461733975 0.9301395142
-0.3530418145 -0.5460107103 0.9310564802
-0.3519557977 -0.5456863186 0.9328848733
-0.3810530870 -0.5540047595 0.8849648015
-0.3804522388 -0.5538256818 0.8859752454
-0.3798526618 -0.5536469831 0.8869835516
-0.3792543520 -0.5534686620 0.8879897266
-0.3786573054 -0.5532907174 0.8889937774
-0.3780615179 -0.5531131480 0.8899957107
-0.3774669857 -0.5529359528 0.8909955330
-0.3768737047 -0.5527591305 0.8919932512
-0.3762816710 -0.5525826800 0.8929888718
-0.3756908806 -0.5524066000 0.8939824014
-0.3751013297 -0.5522308894 0.8949738467
-0.3745130144 -0.5520555471 0.8959632142
-0.3739259307 -0.5518805718 0.8969505103
-0.3733400749 -0.5517059625 0.8979357416
-0.3727554430 -0.5515317180 0.8989189146
-0.3721720312 -0.5513578372 0.8999000357
-0.3715898358 -0.5511843188 0.9008791114
-0.3710088528 -0.5510111618 0.9018561479
-0.3704290786 -0.5508383651 0.9028311518
-0.3601956150 -0.5477883693 0.9200407247
-0.3596381082 -0.5476222092 0.9209782815
-0.3590817376 -0.5474563877 0.9219139275
-0.3585264998 -0.5472909038 0.9228476686
-0.3541249659 -0.5459790645 0.9302497097
-0.3535797693 -0.5458165733 0.9311665645
-0.3530356716 -0.5456544097 0.9320815715
-0.3524926693 -0.5454925725 0.9329947360
-0.3519507593 -0.5453310609 0.9339060639
-0.3822211388 -0.5539799851 0.8840680218
-0.3816184154 -0.5538007439 0.8850804875
-0.3810169685 -0.5536218823 0.8860908089
-0.3804167942 -0.5534433991 0.8870989928
-0.3798178882 -0.5532652932 0.8881050458
-0.3792202467 -0.5530875633 0.8891089749
-0.3786238656 -0.5529102082 0.8901107867
-0.3780287410 -0.5527332267 0.8911104878
-0.3774348689 -0.5525566177 0.8921080850
-0.3762508663 -0.5522045125 0.8940969941
-0.3756607280 -0.5520290139 0.8950883192
-0.3750718265 -0.5518538831 0.8960775666
-0.3744841579 -0.5516791190 0.8970647431
-0.3738977183 -0.5515047203 0.8980498550
-0.3733125039 -0.5513306860 0.8990329088
-0.3727285108 -0.5511570150 0.9000139109
-0.3721457353 -0.5509837060 0.9009928679
-0.3715641735 -0.5508107579 0.9019697860
-0.3635476564 -0.5484267617 0.9154360772
-0.3624212077 -0.5480917722 0.9173283061
-0.3612993648 -0.5477581523 0.9192127983
-0.3607401616 -0.5475918534 0.9201521579
-0.3601820993 -0.5474258938 0.9210896011
-0.3596251744 -0.5472602724 0.9220251337
-0.3552103070 -0.5459473547 0.9294413082
-0.3546634639 -0.5457847315 0.9303599052
-0.3541177241 -0.5456224364 0.9312766489
-0.3535730842 -0.5454604683 0.9321915449
-0.3530295410 -0.5452988264 0.9331045988
-0.3827870672 -0.5537757531 0.8841838305
-0.3821837439 -0.5535967283 0.8851961735
-0.3815816983 -0.5534180828 0.8862063724
-0.3809809265 -0.5532398152 0.8872144340
-0.3803814244 -0.5530619244 0.8882203651
-0.3797831881 -0.5528844091 0.8892241724
-0.3791862134 -0.5527072683 0.8902258627
-0.3785904964 -0.5525305006 0.8912254426
-0.3774028196 -0.5521780801 0.8932182980
-0.3768108520 -0.5520024250 0.8942115868
-0.3762201263 -0.5518271384 0.8952027916
-0.3756306386 -0.5516522192 0.8961919191
-0.3750423850 -0.5514776661 0.8971789759
-0.3744553617 -0.5513034781 0.8981639683
-0.3738695648 -0.5511296541 0.8991469029
-0.3732849904 -0.5509561928 0.9001277861
-0.3727016348 -0.5507830931 0.9011066243
-0.3721194941 -0.5506103539 0.9020834240
-0.3624053733 -0.5477278736 0.9183831777
-0.3618444680 -0.5475614356 0.9193243455
-0.3612847083 -0.5473953376 0.9202635912
-0.3601686112 -0.5470641570 0.9221363399
-0.3596122670 -0.5468990725 0.9230698545
-0.3568474507 -0.5460786659 0.9277090622
-0.3557493494 -0.5457528253 0.9295516152
-0.3552019620 -0.5455903985 0.9304701008
-0.3546556789 -0.5454282994 0.9313867333
-0.3541104969 -0.5452665270 0.9323015183
-0.3535664126 -0.5451050803 0.9332144615
-0.3497882818 -0.5439839920 0.9395539546
-0.3833529956 -0.5535715210 0.8842996392
-0.3827490723 -0.5533927128 0.8853118594
-0.3821464281 -0.5532142833 0.8863219358
-0.3815450589 -0.5530362313 0.8873298752
-0.3809449607 -0.5528585556 0.8883356843
-0.3803461294 -0.5526812550 0.8893393699
-0.3797485611 -0.5525043284 0.8903409387
-0.3791522517 -0.5523277745 0.8913403974
-0.3779633940 -0.5519757802 0.8933330111
-0.3773708377 -0.5518003375 0.8943261794
-0.3767795246 -0.5516252629 0.8953172641
-0.3761894507 -0.5514505552 0.8963062716
-0.3756006122 -0.5512762133 0.8972932087
-0.3750130051 -0.5511022359 0.8982780817
-0.3744266257 -0.5509286221 0.8992608970
-0.3738414700 -0.5507553705 0.9002416613
-0.3732575343 -0.5505824802 0.9012203808
-0.3646423387 -0.5480317131 0.9156600875
-0.3640774145 -0.5478644516 0.9166069423
-0.3635136476 -0.5476975328 0.9175518575
-0.3623895713 -0.5473647189 0.9194358927
-0.3618292549 -0.5471988217 0.9203750245
-0.3612700816 -0.5470332630 0.9213122404
-0.3607120480 -0.5468680417 0.9222475461
-0.3562883917 -0.5455582958 0.9296619221
-0.3557404600 -0.5453960655 0.9305802963
-0.3551936337 -0.5452341624 0.9314968176
-0.3845247316 -0.5535462601 0.8834012001
-0.3839189240 -0.5533672889 0.8844154480
-0.3833144007 -0.5531886972 0.8854275454
-0.3827111579 -0.5530104838 0.8864374993
-0.3821091913 -0.5528326473 0.8874453164
-0.3815084969 -0.5526551868 0.8884510035
-0.3809090708 -0.5524781009 0.8894545674
-0.3803109088 -0.5523013885 0.8904560147
-0.3797140071 -0.5521250484 0.8914553522
-0.3785239683 -0.5517734803 0.8934477243
-0.3779308234 -0.5515982501 0.8944407721
-0.3773389228 -0.5514233874 0.8954317365
-0.3767482628 -0.5512488913 0.8964206241
-0.3761588393 -0.5510747604 0.8974074415
-0.3755706485 -0.5509009937 0.8983921950
-0.3749836866 -0.5507275901 0.8993748912
-0.3743979496 -0.5505545483 0.9003555365
-0.3738134339 -0.5503818674 0.9013341373
-0.3651896799 -0.5478341887 0.9157720926
-0.3646241945 -0.5476671298 0.9167188326
-0.3640598675 -0.5475004131 0.9176636332
-0.3634966954 -0.5473340376 0.9186065003
-0.3629346746 -0.5471680022 0.9195474399
-0.3623738015 -0.5470023059 0.9204864578
-0.3584795352 -0.5458518395 0.9270062684
-0.3579277193 -0.5456888189 0.9279301229
-0.3573770200 -0.5455261282 0.9288521079
-0.3568274340 -0.5453637664 0.9297722290
-0.3562789580 -0.5452017324 0.9306904918
-0.3557315885 -0.5450400254 0.9316069020
-0.3850912612 -0.5533418110 0.8835171319
-0.3844848523 -0.5531630568 0.8845312567
-0.3838797292 -0.5529846816 0.8855432314
-0.3832758876 -0.5528066842 0.8865530627
-0.3826733236 -0.5526290634 0.8875607576
-0.3820720331 -0.5524518180 0.8885663227
-0.3814720121 -0.5522749468 0.8895697649
-0.3808732565 -0.5520984486 0.8905710907
-0.3802757624 -0.5519223223 0.8915703070
-0.3790845426 -0.5515711804 0.8935624374
-0.3784908091 -0.5513961626 0.8945553647
-0.3778983211 -0.5512215119 0.8955462090
-0.3773070749 -0.5510472273 0.8965349766
-0.3767170664 -0.5508733076 0.8975216743
-0.3761282919 -0.5506997515 0.8985063083
-0.3755407475 -0.5505265581 0.8994888853
-0.3749544292 -0.5503537261 0.9004694117
-0.3743693334 -0.5501812545 0.9014478938
-0.3651709744 -0.5474698080 0.9168307229
-0.3646060874 -0.5473032934 0.9177754089
-0.3640423564 -0.5471371196 0.9187181616
-0.3634797778 -0.5469712855 0.9196589871
-0.3629183482 -0.5468057901 0.9205978911
-0.3584678536 -0.5454938954 0.9280406533
-0.3579166078 -0.5453314019 0.9289625264
-0.3573664764 -0.5451692369 0.9298825359
-0.3562695433 -0.5448458884 0.9317169864
-0.3557227349 -0.5446847030 0.9326314386
-0.3862660920 -0.5533162789 0.8826169051
-0.3856577908 -0.5531373620 0.8836330637
-0.3850507807 -0.5529588248 0.8846470654
-0.3844450576 -0.5527806661 0.8856589173
-0.3838406174 -0.5526028847 0.8866686262
-0.3832374560 -0.5524254795 0.8876761988
-0.3826355694 -0.5522484492 0.8886816419
-0.3820349535 -0.5520717927 0.8896849623
-0.3814356043 -0.5518955087 0.8906861667
-0.3796451170 -0.5513688805 0.8936771505
-0.3790507948 -0.5511940751 0.8946699574
-0.3784577194 -0.5510196364 0.8956606814
-0.3778658870 -0.5508455634 0.8966493291
-0.3772752936 -0.5506718547 0.8976359071
-0.3766859353 -0.5504985093 0.8986204217
-0.3760978084 -0.5503255261 0.8996028795
-0.3755109088 -0.5501529039 0.9005832869
-0.3749252329 -0.5499806416 0.9015616503
-0.3662843622 -0.5474391401 0.9159961029
-0.3657177544 -0.5472724862 0.9169426132
-0.3651523073 -0.5471061737 0.9178871846
-0.3645880174 -0.5469402016 0.9188298230
-0.3640248811 -0.5467745688 0.9197705343
-0.3595608991 -0.5454615973 0.9272275533
-0.3590079878 -0.5452989719 0.9281511837
-0.3584561955 -0.5451366756 0.9290729450
-0.3579055187 -0.5449747075 0.9299928428
-0.3573559540 -0.5448130664 0.9309108829
-0.3568074981 -0.5446517515 0.9318270707
-0.3862243204 -0.5529329129 0.8837489954
-0.3856167091 -0.5527545927 0.8847628742
-0.3850103861 -0.5525766505 0.8857746033
-0.3844053472 -0.5523990852 0.8867841897
-0.3838015884 -0.5522218955 0.8877916400
-0.3831991056 -0.5520450804 0.8887969612
-0.3825978948 -0.5518686385 0.8898001598
-0.3819979520 -0.5516925688 0.8908012427
-0.3802056913 -0.5511665806 0.8937918636
-0.3796107804 -0.5509919876 0.8947845500
-0.3790171177 -0.5508177609 0.8957751539
-0.3784246991 -0.5506438994 0.8967636816
-0.3778335207 -0.5504704018 0.8977501399
-0.3772435788 -0.5502972671 0.8987345350
-0.3766548693 -0.5501244941 0.8997168736
-0.3760673885 -0.5499520817 0.9006971621
-0.3754811324 -0.5497800288 0.9016754068
-0.3748960974 -0.5496083341 0.9026516141
-0.3674000378 -0.5474084091 0.9151597679
-0.3668317034 -0.5472416158 0.9161081081
-0.3662645344 -0.5470751644 0.9170545035
-0.3656985273 -0.5469090540 0.9179989603
-0.3606561632 -0.5454292336 0.9264128028
-0.3601015810 -0.5452664761 0.9273381957
-0.3595481221 -0.5451040484 0.9282617140
-0.3589957833 -0.5449419494 0.9291833635
-0.3584445610 -0.5447801780 0.9301031497
-0.3578944520 -0.5446187334 0.9310210784
-0.3874003562 -0.5529069460 0.8828490152
-0.3867908500 -0.5527284639 0.8838649272
-0.3861826375 -0.5525503606 0.8848786829
-0.3855757145 -0.5523726349 0.8858902893
-0.3849700769 -0.5521952857 0.8868997531
-0.3843657207 -0.5520183116 0.8879070812
-0.3837626418 -0.5518417116 0.8889122804
-0.3831608362 -0.5516654844 0.8899153573
-0.3825602997 -0.5514896289 0.8909163187
-0.3813630184 -0.5511390282 0.8929119218
-0.3807662657 -0.5509642807 0.8939065767
-0.3801707661 -0.5507899001 0.8948991427
-0.3795765159 -0.5506158855 0.8958896263
-0.3789835112 -0.5504422354 0.8968780341
-0.3783917479 -0.5502689490 0.8978643726
-0.3778012222 -0.5500960249 0.8988486484
-0.3772119302 -0.5499234622 0.8998308678
-0.3766238681 -0.5497512595 0.9008110372
-0.3760370319 -0.5495794159 0.9017891632
-0.3679479413 -0.5472106819 0.9152718881
-0.3668113143 -0.5468778426 0.9171663938
-0.3662447472 -0.5467119343 0.9181107360
-0.3611973939 -0.5452339144 0.9265235575
-0.3606422629 -0.5450713550 0.9274488381
-0.3600882564 -0.5449091249 0.9283722444
-0.3595353710 -0.5447472231 0.9292937820
-0.3589836034 -0.5445856486 0.9302134566
-0.3578834077 -0.5442634775 0.9320472395
-0.3879674882 -0.5527022795 0.8829650703
-0.3873573796 -0.5525240149 0.8839808590
-0.3867485659 -0.5523461285 0.8849944916
-0.3861410429 -0.5521686194 0.8860059753
-0.3855348067 -0.5519914861 0.8870153166
-0.3849298531 -0.5518147277 0.8880225224
-0.3843261781 -0.5516383428 0.8890275996
-0.3837237775 -0.5514623303 0.8900305548
-0.3831226474 -0.5512866890 0.8910313947
-0.3819241827 -0.5509365154 0.8930267556
-0.3813268400 -0.5507619808 0.8940212898
-0.3807307518 -0.5505878127 0.8950137353
-0.3801359142 -0.5504140100 0.8960040988
-0.3795423233 -0.5502405715 0.8969923866
-0.3789499750 -0.5500674961 0.8979786054
-0.3783588656 -0.5498947827 0.8989627617
-0.3777689911 -0.5497224302 0.8999448619
-0.3771803477 -0.5495504373 0.9009249124
-0.3765929315 -0.5493788030 0.9019029197
-0.3702112648 -0.5475141748 0.9125279528
-0.3690664753 -0.5471796844 0.9144339481
-0.3679263857 -0.5468465671 0.9163321183
-0.3673580943 -0.5466805208 0.9172782841
-0.3662250005 -0.5463494476 0.9191648070
-0.3617386245 -0.5450385952 0.9266343122
-0.3611829448 -0.5448762338 0.9275594806
-0.3606283907 -0.5447142014 0.9284827748
-0.3600749588 -0.5445524968 0.9294042005
-0.3589714481 -0.5442300674 0.9312414695
-0.3885346203 -0.5524976131 0.8830811254
-0.3879239092 -0.5523195658 0.8840967907
-0.3873144942 -0.5521418965 0.8851103004
-0.3867063714 -0.5519646038 0.8861216612
-0.3860995365 -0.5517876866 0.8871308800
-0.3854939855 -0.5516111438 0.8881379637
-0.3848897143 -0.5514349740 0.8891429188
-0.3842867189 -0.5512591762 0.8901457523
-0.3836849952 -0.5510837491 0.8911464708
-0.3824853469 -0.5507340026 0.8931415894
-0.3818874143 -0.5505596809 0.8941360029
-0.3812907375 -0.5503857252 0.8951283280
-0.3806953125 -0.5502121345 0.8961185712
-0.3801011353 -0.5500389075 0.8971067391
-0.3795082021 -0.5498660433 0.8980928382
-0.3789165090 -0.5496935405 0.8990768751
-0.3783260520 -0.5495213982 0.9000588560
-0.3777368273 -0.5493496151 0.9010387876
-0.3701873125 -0.5471486230 0.9135942827
-0.3696149423 -0.5469817537 0.9145461836
-0.3690437483 -0.5468152273 0.9154961285
-0.3684737269 -0.5466490428 0.9164441235
-0.3679048743 -0.5464831990 0.9173901745
-0.3667706615 -0.5461525296 0.9192764683
-0.3628372139 -0.5450057689 0.9258181313
-0.3622798552 -0.5448432761 0.9267450669
-0.3617236267 -0.5446811127 0.9276701230
-0.3897143677 -0.5524711551 0.8821794760
-0.3891017524 -0.5522929466 0.8831971804
-0.3884904388 -0.5521151168 0.8842127225
-0.3878804226 -0.5519376644 0.8852261091
-0.3872716998 -0.5517605882 0.8862373472
-0.3866642663 -0.5515838871 0.8872464435
-0.3860581179 -0.5514075598 0.8882534049
-0.3854532505 -0.5512316052 0.8892582380
-0.3848496602 -0.5510560221 0.8902609498
-0.3830465111 -0.5505314899 0.8932564233
-0.3824479887 -0.5503573810 0.8942507160
-0.3818507232 -0.5501836377 0.8952429207
-0.3812547108 -0.5500102590 0.8962330437
-0.3806599474 -0.5498372436 0.8972210916
-0.3800664293 -0.5496645904 0.8982070710
-0.3794741524 -0.5494922983 0.8991909884
-0.3788831129 -0.5493203662 0.9001728502
-0.3782933069 -0.5491487929 0.9011526628
-0.3713104599 -0.5471174976 0.9127528865
-0.3707363441 -0.5469504886 0.9137066338
-0.3701634094 -0.5467838231 0.9146584191
-0.3695916519 -0.5466175001 0.9156082488
-0.3690210680 -0.5464515184 0.9165561286
-0.3684516542 -0.5462858772 0.9175020648
-0.3678834069 -0.5461205753 0.9184460631
-0.3673163225 -0.5459556116 0.9193881296
-0.3639380377 -0.5449728758 0.9250002903
-0.3633789944 -0.5448102513 0.9259289985
-0.3628210858 -0.5446479569 0.9268558217
-0.3622643086 -0.5444859916 0.9277807654
-0.3617086592 -0.5443243544 0.9287038355
-0.3902821035 -0.5522662707 0.8822956546
-0.3896688845 -0.5520882801 0.8833132355
-0.3890569684 -0.5519106677 0.8843286542
-0.3884463510 -0.5517334323 0.8853419179
-0.3878370283 -0.5515565726 0.8863530332
-0.3872289960 -0.5513800876 0.8873620070
-0.3866222502 -0.5512039759 0.8883688461
-0.3860167868 -0.5510282364 0.8893735573
-0.3854126016 -0.5508528680 0.8903761473
-0.3842080499 -0.5505032395 0.8923749905
-0.3836076753 -0.5503289771 0.8933712571
-0.3830085630 -0.5501550810 0.8943654292
-0.3824107089 -0.5499815502 0.8953575133
-0.3818141091 -0.5498083835 0.8963475161
-0.3812187595 -0.5496355796 0.8973354441
-0.3806246564 -0.5494631376 0.8983213038
-0.3800317958 -0.5492910561 0.8993051017
-0.3794401738 -0.5491193342 0.9002868443
-0.3782606300 -0.5487769644 0.9022441892
-0.3730129814 -0.5472538023 0.9109521815
